ply
format ascii 1.0
element vertex 1452
property float x
property float y
property float z
property uchar red
property uchar green
property uchar blue
end_header
-30.9493 -16.3404 80.5611 255 0 0
126.492 48.2541 367.091 255 0 0
-31.2387 -15.4107 84.6937 255 0 0
70.7469 23.0292 130.669 255 0 0
-66.1965 3.1263 172 255 0 0
-106.866 122.767 457.377 255 0 0
0.103224 0.550491 1.37099 255 0 0
59.4328 -31.8116 164.429 255 0 0
-110.311 -7.14591 469.323 255 0 0
-38.6009 -20.0485 77.5382 255 0 0
-94.1648 179.618 426.529 255 0 0
-79.2566 65.0964 317.728 255 0 0
51.5621 -30.0149 109.95 255 0 0
59.5417 -24.5905 131.45 255 0 0
-5.74051 4.37171 21.71 255 0 0
107.264 48.2178 185.431 255 0 0
-80.9361 -21.4115 181.907 255 0 0
-84.1489 69.8232 171.774 255 0 0
-86.0715 76.9394 308.839 255 0 0
-79.6081 118.521 326.972 255 0 0
92.4036 65.4227 150.851 255 0 0
61.0753 -31.4546 140.089 255 0 0
-75.136 50.5642 205.609 255 0 0
-72.8851 49.7568 176.081 255 0 0
-104.984 -17.0708 304.676 255 0 0
-106.133 68.6236 422.047 255 0 0
57.8649 -24.4463 120.283 255 0 0
58.4187 101.582 448.813 255 0 0
122.229 41.0735 304.754 255 0 0
95.3555 73.0845 162.661 255 0 0
53.657 -27.1546 112.571 255 0 0
-60.6447 73.1749 485.253 255 0 0
-3.67136 2.06879 8.48156 255 0 0
-90.3986 47.2091 189.4 255 0 0
78.0622 37.5881 130.137 255 0 0
-89.1482 3.50006 322.126 255 0 0
-100.507 53.426 423.771 255 0 0
-96.9079 123.845 371.051 255 0 0
-88.9209 112.875 314.765 255 0 0
235.59 -55.3423 411.964 255 0 0
55.2787 -60.2789 424.812 255 0 0
79.5198 -31.6884 171.189 255 0 0
0.0360114 0.277192 2.06931 255 0 0
-20.6738 -7.64049 91.3245 255 0 0
61.5692 -72.0137 488.03 255 0 0
-88.0486 108.955 328.162 255 0 0
-79.906 95.8958 221.966 255 0 0
-59.255 22.2905 109.06 255 0 0
-94.3743 78.2159 248.654 255 0 0
-95.5548 46.7058 246.561 255 0 0
-83.4145 48.5468 158.438 255 0 0
109.98 -40.9005 240.597 255 0 0
-97.913 52.9193 314.003 255 0 0
-93.446 59.1426 370.212 255 0 0
-103.33 66.6333 337.556 255 0 0
-26.9578 -33.451 157.851 255 0 0
107.195 170.637 390.586 255 0 0
-44.4209 -11.0944 90.5258 255 0 0
199.714 119.437 463.476 255 0 0
-83.6349 51.7378 160.867 255 0 0
-92.4962 100.445 421.662 255 0 0
-100.241 121.495 359.606 255 0 0
-81.9011 59.1931 160.724 255 0 0
34.087 13.5729 196.408 255 0 0
75.1507 83.8834 192.612 255 0 0
107.018 185.034 395.791 255 0 0
-90.0231 94.7293 368.405 255 0 0
58.0885 -34.341 124.326 255 0 0
-37.571 -19.2069 77.3369 255 0 0
-0.314679 1.16964 2.68295 255 0 0
-37.7539 -19.4289 76.374 255 0 0
0.355204 -0.0573221 3.25853 255 0 0
0.148104 0.0917557 2.7169 255 0 0
-56.195 22.7142 127.269 255 0 0
-84.7897 71.7003 187.982 255 0 0
-82.3872 28.2363 215.304 255 0 0
8.64299 -3.31286 23.4517 255 0 0
79.0236 20.6033 275.54 255 0 0
110.548 170.982 382.215 255 0 0
43.427 -27.1397 106.617 255 0 0
-86.234 120.087 291.461 255 0 0
-75.7555 33.0072 207.542 255 0 0
13.987 -7.38605 38.7965 255 0 0
97.4115 68.8069 159.501 255 0 0
-0.188494 -0.206847 1.77731 255 0 0
-69.2525 3.18465 189.455 255 0 0
-93.5875 60.398 323.288 255 0 0
75.4054 -46.5301 345.359 255 0 0
-40.8518 -23.0996 148.207 255 0 0
-28.5768 -13.898 74.1549 255 0 0
100.818 44.8449 170.152 255 0 0
51.5672 -25.2842 88.8351 255 0 0
-85.8997 45.717 238.962 255 0 0
-78.5562 45.8376 149.143 255 0 0
-132.588 -41.5509 481.259 255 0 0
-90.25 76.2803 267.735 255 0 0
-85.4237 -17.2277 151.443 255 0 0
-30.872 -23.6377 106.021 255 0 0
48.3118 -37.3641 341.574 255 0 0
-15.9051 18.6929 76.4729 255 0 0
-55.9204 -43.1037 338.363 255 0 0
83.5808 64.2244 139.251 255 0 0
131.327 71.2875 296.656 255 0 0
-43.4699 -22.2521 89.6763 255 0 0
82.9922 -30.1871 184.328 255 0 0
54.9989 -20.6039 102.245 255 0 0
58.7 -30.4335 134.694 255 0 0
0.204436 0.298382 2.75992 255 0 0
-81.2848 33.8166 277.601 255 0 0
-35.0523 -31.0716 130.677 255 0 0
-84.9624 -15.5662 159.024 255 0 0
-110.986 -6.22767 328.621 255 0 0
120.711 65.469 287.991 255 0 0
99.5524 30.5793 302.378 255 0 0
0.792025 -0.446334 2.92525 255 0 0
143.947 121.327 322.258 255 0 0
-82.8044 51.7691 293.211 255 0 0
157.391 110.668 455.228 255 0 0
-32.2612 -38.5126 212.736 255 0 0
-102.202 -4.66566 393.108 255 0 0
0.0380375 -0.339009 1.82277 255 0 0
111.514 -36.2991 323.443 255 0 0
51.6507 -31.5847 111.624 255 0 0
52.1913 -20.9567 112.797 255 0 0
-31.6941 -22.3769 94.2169 255 0 0
-31.2255 -37.0897 205.777 255 0 0
116.978 33.2605 329.569 255 0 0
-92.2367 108.727 299.473 255 0 0
73.2901 11.1949 253.533 255 0 0
115.157 36.5254 307.283 255 0 0
-88.0688 -16.8294 202.177 255 0 0
132.678 74.8854 357.482 255 0 0
86.3609 26.9918 235.301 255 0 0
-84.6804 124.735 283.279 255 0 0
99.888 37.7538 182.559 255 0 0
-84.261 -9.56297 149.735 255 0 0
-33.8682 -18.9677 122.494 255 0 0
-65.0235 -36.823 146.122 255 0 0
0.0916356 -0.355643 1.90444 255 0 0
-85.6018 -16.4188 206.883 255 0 0
3.01837 -1.42044 7.97058 255 0 0
-93.2718 129.879 404.827 255 0 0
-76.9419 54.2979 215.912 255 0 0
-81.6065 31.9657 232.12 255 0 0
-81.614 40.7023 150.215 255 0 0
-100.884 34.7225 370.19 255 0 0
-37.7324 27.0419 144.763 255 0 0
-32.8914 -18.5901 86.2769 255 0 0
-35.6277 -25.4905 164.443 255 0 0
-34.7412 -16.8944 60.2627 255 0 0
54.8168 -29.502 119.469 255 0 0
110.346 46.1209 201.295 255 0 0
125.551 59.8303 276.253 255 0 0
-37.6888 -11.747 66.5165 255 0 0
88.7983 27.7522 188.227 255 0 0
-80.2136 42.3224 145.994 255 0 0
-0.171723 -0.545286 2.8843 255 0 0
53.8602 -18.6861 102.221 255 0 0
-46.0487 -13.2062 317.142 255 0 0
-57.9762 23.3808 121.796 255 0 0
81.3304 36.7187 137.654 255 0 0
-96.0752 134.39 403.869 255 0 0
108.678 40.0748 251.627 255 0 0
-0.592146 0.726865 3.25757 255 0 0
47.701 -31.5006 118.507 255 0 0
-33.2938 -19.2543 81.2126 255 0 0
89.147 -22.0708 156.537 255 0 0
58.2247 -61.1361 363.035 255 0 0
-103.132 102.692 260.302 255 0 0
83.0921 -22.3777 272.04 255 0 0
-34.5366 -17.1713 74.0526 255 0 0
63.0621 -26.1581 139.752 255 0 0
125.145 51.1138 229.614 255 0 0
-87.249 40.0966 202.724 255 0 0
-66.6017 49.8615 184.478 255 0 0
62.8623 17.5263 152.839 255 0 0
-103.027 -4.6327 396.766 255 0 0
-113.74 49.1059 368.82 255 0 0
-85.3795 43.5474 221.28 255 0 0
3.16786 1.81922 6.54274 255 0 0
-83.2129 69.4525 201.987 255 0 0
58.0965 23.3047 327.295 255 0 0
-32.2777 -25.4396 122.995 255 0 0
-97.837 70.7603 370.179 255 0 0
-123.292 53.7879 338.814 255 0 0
54.4238 -48.7133 259.203 255 0 0
-32.7193 -19.9034 110.93 255 0 0
-80.893 19.8769 245.468 255 0 0
-12.5178 -5.54492 33.555 255 0 0
-84.0342 115.954 264.303 255 0 0
128.795 -43.6545 405.648 255 0 0
45.0109 -16.2949 105.979 255 0 0
16.7332 -6.83037 37.0352 255 0 0
128.788 61.0506 285.164 255 0 0
-1.31893 0.806901 6.13157 255 0 0
-107.717 114.974 341.434 255 0 0
94.1088 23.9636 241.026 255 0 0
-30.484 -16.9373 79.6348 255 0 0
-75.1971 2.09048 210.66 255 0 0
0.00653528 0.771845 2.07536 255 0 0
121.95 58.4387 268.075 255 0 0
10.7125 -3.31392 18.9184 255 0 0
-10.6043 0.62033 39.8976 255 0 0
54.7905 -37.3372 152.739 255 0 0
0.576374 -0.191865 3.6215 255 0 0
-30.8303 -30.5014 202.295 255 0 0
37.7079 -65.9019 482.443 255 0 0
-32.8352 -16.3198 70.9254 255 0 0
-82.3363 35.5785 251.304 255 0 0
-120.399 171.361 370.598 255 0 0
-0.270929 0.55275 4.85537 255 0 0
111.762 53.2847 200.971 255 0 0
-97.584 74.5353 375.108 255 0 0
59.6094 -31.7559 158.073 255 0 0
35.3394 15.4389 63.4052 255 0 0
-93.7033 58.1368 165.646 255 0 0
0.133171 -0.258512 2.00815 255 0 0
2.46337 -0.8264 8.79379 255 0 0
-0.339047 1.38433 3.76672 255 0 0
-67.7319 43.5685 390.629 255 0 0
97.3798 154.64 358.902 255 0 0
48.1712 79.2219 177.882 255 0 0
-84.2004 20.2797 267.298 255 0 0
-41.9385 -23.1548 154.412 255 0 0
58.5628 -30.6848 153.725 255 0 0
-90.007 61.1929 401.914 255 0 0
-87.4419 34.9593 342.674 255 0 0
103.215 11.9139 303.923 255 0 0
133.822 51.7393 434.257 255 0 0
-76.2034 58.8472 216.845 255 0 0
108.405 173.43 386.045 255 0 0
-59.6625 15.3404 137.623 255 0 0
-77.6772 16.252 211.705 255 0 0
39.8861 -16.6439 89.6712 255 0 0
-25.9604 -11.0546 68.039 255 0 0
136.108 60.0485 472.296 255 0 0
184.22 -68.3204 499.567 255 0 0
-94.799 78.2478 189.311 255 0 0
-27.1915 -23.937 84.8721 255 0 0
-15.9065 -9.86499 57.7261 255 0 0
0.18569 -0.449936 3.45327 255 0 0
2.19884 1.77555 5.66986 255 0 0
110.993 -17.6354 229.171 255 0 0
93.7104 112.164 250.834 255 0 0
118.18 107.744 312.421 255 0 0
-72.585 31.8381 144.772 255 0 0
-115.814 72.9925 389.164 255 0 0
-105.073 59.4336 357.716 255 0 0
94.2886 62.3 164.342 255 0 0
-82.3748 23.5405 252.414 255 0 0
71.8041 114.486 256.422 255 0 0
-35.7755 -18.5267 71.7733 255 0 0
-95.1986 65.2333 405.857 255 0 0
-59.8238 20.1343 130.199 255 0 0
121.9 107.809 283.434 255 0 0
-98.9285 48.2973 313.134 255 0 0
145.022 161.545 384.208 255 0 0
-89.2617 55.2565 158.268 255 0 0
-87.4233 94.8567 253.643 255 0 0
127.816 93.9385 353.926 255 0 0
-35.2005 70.3598 164.974 255 0 0
-41.1019 -40.557 322.047 255 0 0
-1.37396 0.915425 3.78312 255 0 0
-72.5379 24.9786 159.035 255 0 0
57.7055 -32.5545 144.21 255 0 0
-6.394 -3.63982 18.4335 255 0 0
-36.7512 -32.1958 156.143 255 0 0
111.703 173.521 377.665 255 0 0
150.012 146.378 383.933 255 0 0
0.0654288 -0.389593 2.52755 255 0 0
69.7532 1.6938 358.199 255 0 0
-89.0182 87.3461 219.451 255 0 0
147.43 82.2109 293.851 255 0 0
-76.2365 152.399 366.033 255 0 0
106.378 43.1555 190.867 255 0 0
54.6352 13.8295 140.569 255 0 0
-35.5869 -31.1894 180.795 255 0 0
59.5455 -40.4381 165.851 255 0 0
62.4279 -39.5717 209.935 255 0 0
95.5963 73.9555 161.343 255 0 0
58.0418 -41.5895 228.006 255 0 0
122.026 50.6745 226.506 255 0 0
134.77 112.209 281.902 255 0 0
125.095 89.3794 366.276 255 0 0
-70.6974 1.87843 199.182 255 0 0
52.3593 -35.8209 184.227 255 0 0
143.516 62.9401 353.399 255 0 0
1.14221 -5.35292 98.7493 255 0 0
-35.3235 -18.5741 73.4364 255 0 0
0.0980836 -0.344026 1.65478 255 0 0
-95.1023 58.0677 169.495 255 0 0
-1.44562 0.524082 6.14179 255 0 0
-82.0372 87.7592 259.581 255 0 0
-109.795 112.51 377.977 255 0 0
69.5652 -18.0874 122.817 255 0 0
110.154 -17.1147 227.845 255 0 0
147.073 54.0225 239.709 255 0 0
-62.718 10.2108 163.536 255 0 0
108.392 82.7513 189.26 255 0 0
-80.11 65.2606 193.334 255 0 0
-20.5547 -23.7691 68.6047 255 0 0
-41.5872 -21.4797 77.4586 255 0 0
-62.6371 20.4581 136.139 255 0 0
134.803 51.2993 355.876 255 0 0
-32.6325 -14.3911 63.3643 255 0 0
68.4472 -70.8061 400.074 255 0 0
-24.1828 -20.9993 62.5397 255 0 0
81.2048 53.9509 131.924 255 0 0
145.217 122.337 325.811 255 0 0
-34.2406 -15.1313 66.5453 255 0 0
-84.1903 122 327.669 255 0 0
30.6215 33.784 77.8146 255 0 0
-35.9941 -25.3877 95.2635 255 0 0
0.157038 0.627301 1.36966 255 0 0
134.563 97.7407 260.213 255 0 0
-30.9053 -19.2098 92.6281 255 0 0
-39.6592 -11.8845 70.1989 255 0 0
58.1494 -36.8188 147.511 255 0 0
-96.8704 73.6071 356.212 255 0 0
-99.0273 -20.291 270.151 255 0 0
118.374 -35.7673 259.925 255 0 0
0.553575 -0.493008 4.49752 255 0 0
0.416501 0.0424049 1.69132 255 0 0
-86.0843 -10.3798 168.219 255 0 0
-91.8135 72.7714 186.87 255 0 0
136.63 152.559 357.416 255 0 0
94.7323 169.495 361.948 255 0 0
145.802 69.5638 336.773 255 0 0
53.3898 -28.8591 112.613 255 0 0
-1.13824 0.594775 5.40264 255 0 0
-1.44043 0.526201 6.10416 255 0 0
-58.153 21.0702 107.225 255 0 0
-37.4883 -37.2314 246.85 255 0 0
-93.1574 67.7615 300.202 255 0 0
-30.0375 -25.9912 135.041 255 0 0
120.098 67.3995 239.948 255 0 0
122.223 34.0706 353.594 255 0 0
150.875 57.0639 456.794 255 0 0
-87.2536 106.567 249.012 255 0 0
0.0808711 0.0767138 1.34093 255 0 0
-81.5044 118.815 369.235 255 0 0
-2.10394 1.39811 8.39255 255 0 0
39.7239 62.2691 147.707 255 0 0
-35.8948 -16.2391 68.8863 255 0 0
-83.8752 37.6751 309.777 255 0 0
67.3474 32.5263 110.359 255 0 0
-119.703 128.467 366.54 255 0 0
-40.3209 -24.3096 138.564 255 0 0
159.433 53.7766 420.15 255 0 0
-92.2112 31.8495 279.157 255 0 0
3.02394 2.10708 7.13111 255 0 0
-45.0657 1.7246 125.569 255 0 0
-101.798 7.21245 359.233 255 0 0
110.778 77.9293 189.087 255 0 0
50.5163 -29.8917 117.078 255 0 0
60.3571 17.9184 140.216 255 0 0
0.0503383 0.43916 1.07334 255 0 0
57.0577 18.5978 125.823 255 0 0
-20.1685 -22.7008 59.4471 255 0 0
-89.7839 97.1797 262.752 255 0 0
-1.9153 -0.37098 7.97779 255 0 0
-93.9977 17.434 278.06 255 0 0
0.183396 -0.424557 2.50918 255 0 0
-59.17 26.7745 128.946 255 0 0
121.952 -35.6039 267.059 255 0 0
-47.2705 -24.4525 87.887 255 0 0
-90.8246 42.5498 356.456 255 0 0
137.209 45.8673 499.072 255 0 0
115.332 93.6323 216.42 255 0 0
-89.0897 52.9215 185.647 255 0 0
110.777 75.5738 206.07 255 0 0
54.0666 -37.7315 150.743 255 0 0
46.7261 -30.7664 111.536 255 0 0
-89.0779 57.6736 171.921 255 0 0
0.124022 0.193189 2.63931 255 0 0
-38.8707 -17.0741 107.752 255 0 0
-1.58484 1.24311 3.93858 255 0 0
68.0876 20.7921 131.924 255 0 0
117.493 -33.3106 256.929 255 0 0
61.1951 53.9167 151.816 255 0 0
96.12 36.7928 168.155 255 0 0
91.7605 7.69593 398.907 255 0 0
130.995 80.8823 317.986 255 0 0
-82.6212 5.92036 251.116 255 0 0
-89.5998 47.747 175.174 255 0 0
-102.432 -5.97029 385.108 255 0 0
55.4937 -19.8191 102.316 255 0 0
79.5272 -10.7095 405.15 255 0 0
-15.7481 -63.0434 372.054 255 0 0
-30.9493 -30.5725 169.739 255 0 0
108.835 96.6077 268.857 255 0 0
8.40303 2.53832 17.2902 255 0 0
1.35459 0.309924 5.39848 255 0 0
107.795 164.854 392.266 255 0 0
117.137 102.535 347.547 255 0 0
108.068 172.695 394.141 255 0 0
-80.3959 62.5899 467.772 255 0 0
78.1832 -64.5418 400.157 255 0 0
-1.79399 -1.24542 11.467 255 0 0
50.9661 -26.5126 83.8065 255 0 0
-33.6505 -24.0515 122.805 255 0 0
-86.8232 16.5918 245.933 255 0 0
-78.5411 34.4894 289.934 255 0 0
69.4537 21.0389 134.548 255 0 0
192.89 86.359 321.978 255 0 0
-92.7819 89.457 325.434 255 0 0
-35.9068 -13.5772 66.9133 255 0 0
11.1373 -13.0115 85.6128 255 0 0
-0.272116 1.25744 2.93438 255 0 0
137.362 -26.6959 281.263 255 0 0
-82.4237 29.6184 256.781 255 0 0
-82.2375 -15.9731 140.467 255 0 0
-33.3811 -13.8108 87.2875 255 0 0
106.425 40.5525 173.842 255 0 0
-82.7416 95.4086 228.257 255 0 0
-62.7124 23.2197 112.316 255 0 0
59.9951 -41.7835 228.5 255 0 0
-43.1901 10.5192 115.72 255 0 0
-68.5541 31.3976 164.645 255 0 0
-148.267 11.8106 459.216 255 0 0
54.5404 -33.3266 180.382 255 0 0
-74.3338 34.8824 156.679 255 0 0
-98.1776 50.5201 191.482 255 0 0
60.3468 22.9238 138.338 255 0 0
-84.5195 -17.9605 155.443 255 0 0
-28.0152 -22.1029 77.6034 255 0 0
-107.01 0.885401 332.215 255 0 0
-82.3824 46.9123 176.148 255 0 0
114.267 48.223 215.573 255 0 0
-96.7629 68.0975 383.365 255 0 0
3.71846 -2.69525 13.2904 255 0 0
57.3635 -38.3162 217.969 255 0 0
102.379 43.5654 189.128 255 0 0
22.9318 -21.1556 106.522 255 0 0
168.103 192.51 470.872 255 0 0
-34.5669 -18.5491 81.8 255 0 0
-15.9183 -67.9864 407.404 255 0 0
-81.2216 -15.1932 138.31 255 0 0
54.6315 -39.5996 172.901 255 0 0
121.685 125.377 325.783 255 0 0
70.0023 8.92436 241.051 255 0 0
0.78683 -0.672303 8.2164 255 0 0
-50.8757 12.8984 122.66 255 0 0
-86.4691 101.545 268.874 255 0 0
290.568 194.38 469.559 255 0 0
-35.9544 -14.3054 98.5906 255 0 0
4.86321 4.06191 9.02357 255 0 0
108.066 172.695 395.92 255 0 0
98.5177 41.3391 179.834 255 0 0
147.987 -29.1796 302.488 255 0 0
-72.5718 32.854 157.202 255 0 0
129.517 43.1955 367.251 255 0 0
-19.7525 -22.1621 58.1833 255 0 0
-107.112 -29.3844 363.035 255 0 0
102.046 161.118 390.167 255 0 0
-86.9041 94.5983 212.225 255 0 0
-33.0034 -28.421 148.646 255 0 0
-77.4117 34.3689 193.461 255 0 0
-22.2625 -24.5832 69.1111 255 0 0
-53.056 5.34225 130.739 255 0 0
56.7559 -28.2455 130.426 255 0 0
-0.172748 -0.40037 1.49185 255 0 0
-15.6445 15.9055 57.2402 255 0 0
-87.3697 44.9112 170.273 255 0 0
-117.911 -23.2188 457.024 255 0 0
0.131505 0.671423 2.07125 255 0 0
0.247993 -0.458184 3.00153 255 0 0
142.147 74.4219 321.592 255 0 0
-70.2432 28.8354 163.785 255 0 0
-84.7665 78.6836 243.39 255 0 0
-83.3677 40.3001 234.755 255 0 0
-101.587 149.587 446.535 255 0 0
0.133749 0.18466 1.24839 255 0 0
-104.288 -39.7935 471.724 255 0 0
0.177991 0.103126 1.51735 255 0 0
93.3466 73.235 157.975 255 0 0
-90.4553 63.5004 359.098 255 0 0
0.265489 0.180278 2.52739 255 0 0
37.5172 -25.932 71.9824 255 0 0
-42.7376 -35.7292 177.961 255 0 0
-24.4159 -25.0811 97.0477 255 0 0
-96.5187 7.98963 299.92 255 0 0
-103.681 114.787 433.84 255 0 0
64.6173 18.6237 151.732 255 0 0
-13.7972 6.24726 152.318 255 0 0
-85.3344 -6.40896 219.749 255 0 0
55.5511 -22.1637 101.591 255 0 0
-97.4427 69.592 413.059 255 0 0
-101.829 121.213 292.522 255 0 0
-70.0613 -0.000804154 162.029 255 0 0
-74.8801 39.5083 169.384 255 0 0
1.27921 -0.112185 4.26646 255 0 0
-1.58232 -0.483401 4.95149 255 0 0
-22.0176 -6.47658 44.9231 255 0 0
-77.5929 28.558 252.973 255 0 0
-32.7677 25.6157 92.263 255 0 0
108.042 42.7407 187.112 255 0 0
-80.885 48.607 151.933 255 0 0
99.0917 -94.5943 475.679 255 0 0
-97.8102 1.85386 303 255 0 0
0.0744591 -0.26958 1.13014 255 0 0
116.319 184.643 426.829 255 0 0
65.5976 -30.5058 129.678 255 0 0
-64.4995 15.9146 158.076 255 0 0
52.4918 -44.945 226.962 255 0 0
150.267 43.9139 447.555 255 0 0
-71.9923 25.0332 201.197 255 0 0
-80.1204 8.54191 213.704 255 0 0
-76.7687 26.6978 231.061 255 0 0
0.218085 -0.217352 2.43679 255 0 0
-38.3557 -16.0605 106.023 255 0 0
0.0291444 0.318434 1.05792 255 0 0
-3.20529 -39.3023 211.587 255 0 0
3.49172 2.6059 7.13667 255 0 0
129.86 -33.7877 310.702 255 0 0
59.7272 -34.81 169.25 255 0 0
-40.6932 -23.3287 74.3102 255 0 0
-88.4667 72.7785 199.332 255 0 0
56.7472 -45.1193 177.039 255 0 0
56.8249 -24.9625 129.679 255 0 0
-90.4802 51.7995 214.023 255 0 0
177.313 146.321 371.442 255 0 0
0.244171 -0.493892 2.1258 255 0 0
-81.9353 25.1241 429.516 255 0 0
-23.9781 -23.3463 63.1198 255 0 0
52.8432 -31.211 100.661 255 0 0
-71.9045 110.237 236.39 255 0 0
176.422 47.107 475.162 255 0 0
-122.239 131.484 369.17 255 0 0
-91.0398 64.6568 170.124 255 0 0
-123.744 93.8555 389.81 255 0 0
-46.7845 89.2298 403.32 255 0 0
-87.48 -20.5494 186.98 255 0 0
0.307317 0.255576 1.68591 255 0 0
111.829 42.351 187.727 255 0 0
-64.7375 7.2862 156.38 255 0 0
117.437 122.582 362.945 255 0 0
-89.8713 -44.3107 405.526 255 0 0
-39.1348 -25.6583 180.094 255 0 0
-125.262 122.73 435.921 255 0 0
-42.9749 19.8522 120.614 255 0 0
98.4986 112.151 307.641 255 0 0
-14.355 -5.9622 38.6259 255 0 0
-80.5032 38.2367 169.628 255 0 0
-15.6907 0.47771 62.0569 255 0 0
130.532 61.5774 367.218 255 0 0
-87.8637 56.634 204.841 255 0 0
58.4984 13.6532 112.559 255 0 0
-89.2445 99.8097 291.42 255 0 0
5.76971 4.75594 16.7858 255 0 0
-38.5553 -25.3518 171.196 255 0 0
-0.0489593 0.568132 1.54456 255 0 0
-85.9254 48.6146 146.855 255 0 0
-83.8172 -8.12958 152.666 255 0 0
-25.1017 -11.284 69.5834 255 0 0
-0.888068 0.295906 3.73856 255 0 0
-44.1836 0.428271 123.078 255 0 0
-5.67211 -37.7155 199.189 255 0 0
129.661 78.6313 340.878 255 0 0
-97.025 76.9791 175.342 255 0 0
113.456 35.5423 396.024 255 0 0
110.542 176.618 398.614 255 0 0
0.022416 -0.083174 1.62467 255 0 0
158.248 60.942 486.443 255 0 0
-102.185 -13.8467 323.725 255 0 0
0.127117 0.335118 2.16047 255 0 0
-7.88556 2.78517 27.7805 255 0 0
111.879 83.5979 194.028 255 0 0
-0.475879 0.4411 5.07925 255 0 0
-85.3092 34.6236 307.626 255 0 0
124.564 91.6566 247.217 255 0 0
47.0626 -25.4522 371.832 255 0 0
-2.49214 1.19646 12.6476 255 0 0
0.0942381 0.191441 3.02769 255 0 0
1.92889 -0.485346 4.37875 255 0 0
-27.522 5.6197 65.9615 255 0 0
93.1101 58.5768 420.999 255 0 0
-99.874 94.819 320.542 255 0 0
-48.5828 -43.1961 328.977 255 0 0
-8.17799 -60.1027 470.245 255 0 0
108.248 29.9459 273.027 255 0 0
98.341 -34.6726 326.176 255 0 0
60.0189 -13.5686 257.992 255 0 0
-91.1606 11.5776 241.446 255 0 0
-34.0697 -16.9376 78.319 255 0 0
53.2563 -48.5096 233.12 255 0 0
-76.3582 -7.96486 204.257 255 0 0
127.394 -35.4753 278.469 255 0 0
-5.38681 -70.3665 388.757 255 0 0
78.4934 -6.53524 410.669 255 0 0
-96.7366 56.2191 300.412 255 0 0
-25.2523 -22.7403 64.1272 255 0 0
-0.0398464 -0.312526 1.62097 255 0 0
-93.6845 49.2894 281.028 255 0 0
98.9884 -25.481 297.495 255 0 0
128.312 50.4009 222.941 255 0 0
0.0251306 0.284923 1.11475 255 0 0
-1.13061 1.15484 5.33308 255 0 0
-81.3078 84.0756 443.419 255 0 0
-2.08047 1.1596 6.8978 255 0 0
140.564 157.236 408.232 255 0 0
-118.481 128.681 338.335 255 0 0
-0.244357 0.477719 2.47331 255 0 0
60.1951 -32.9218 142.42 255 0 0
-76.3317 32.7081 191.288 255 0 0
-84.3423 -45.8705 491.808 255 0 0
-3.19177 1.66584 11.8516 255 0 0
55.1504 -31.5215 144.731 255 0 0
66.3195 -13.9505 338.367 255 0 0
-0.0928793 0.46673 1.22237 255 0 0
-45.6249 87.2995 251.771 255 0 0
93.3625 24.6525 252.213 255 0 0
93.3555 147.405 354.793 255 0 0
63.9923 -28.1455 114.676 255 0 0
-6.63544 -45.5787 237.02 255 0 0
-89.4539 15.085 295.88 255 0 0
-61.407 15.6374 148.354 255 0 0
-14.9515 -17.9848 49.1695 255 0 0
-80.6475 1.51274 329.177 255 0 0
-89.8949 38.0096 339.748 255 0 0
-62.0606 2.02021 268.029 255 0 0
95.3851 109.17 253.329 255 0 0
-1.13707 -0.149916 3.01773 255 0 0
78.8476 59.318 130.011 255 0 0
-82.6223 36.721 194.865 255 0 0
-3.10463 3.22669 11.5751 255 0 0
53.939 10.0692 122.7 255 0 0
-123.891 -13.9161 305.858 255 0 0
-15.9963 10.7474 34.7105 255 0 0
-102.207 116.211 247.443 255 0 0
0.973852 0.305719 2.67193 255 0 0
-3.02001 -1.56805 8.37685 255 0 0
-90.0508 3.29138 421.433 255 0 0
232.246 174.044 401.662 255 0 0
-91.8723 68.6149 362.95 255 0 0
99.0768 67.3362 179.102 255 0 0
120.73 112.227 266.969 255 0 0
-31.0142 -21.5188 97.8922 255 0 0
-54.9911 -79.0723 329.155 255 0 0
-104.056 8.48987 360.836 255 0 0
-88.6377 57.4735 179.57 255 0 0
76.9196 27.4963 272.64 255 0 0
0.979944 -1.29309 17.2685 255 0 0
-34.0066 -19.705 86.8692 255 0 0
-31.6464 -15.9091 90.0752 255 0 0
-8.77738 -40.3332 381.474 255 0 0
37.5769 43.1729 118.516 255 0 0
36.099 -38.4869 212.642 255 0 0
28.6019 10.734 89.8987 255 0 0
-75.4746 -18.0651 145.492 255 0 0
11.9438 4.63607 22.6321 255 0 0
-2.86927 6.25442 38.1404 255 0 0
-113.125 11.2563 352.212 255 0 0
0.273796 0.312063 1.90516 255 0 0
-0.034125 0.140184 1.57943 255 0 0
97.4935 -53.5559 254.656 255 0 0
-86.5778 38.9534 149.737 255 0 0
-68.1996 27.6915 154.75 255 0 0
51.0862 74.0537 186.912 255 0 0
-93.3698 120.896 303.48 255 0 0
-36.1867 -16.2215 72.604 255 0 0
-37.4426 -16.8338 78.0103 255 0 0
-1.87998 -0.514383 4.87288 255 0 0
-0.263178 -0.414309 1.52586 255 0 0
-37.4072 -20.2495 70.9004 255 0 0
-0.0110468 -0.10752 1.27311 255 0 0
-87.8039 -16.0252 162.132 255 0 0
-63.4687 17.6711 151.279 255 0 0
58.4572 -19.3915 349.498 255 0 0
-25.494 -24.1085 73.4095 255 0 0
47.5419 -25.6675 78.2358 255 0 0
98.7774 84.6078 183.656 255 0 0
-4.30886 4.16369 15.121 255 0 0
-29.098 -43.9738 172.459 255 0 0
0.129387 0.349959 1.31963 255 0 0
74.993 120.328 259.243 255 0 0
74.0366 28.243 123.183 255 0 0
46.8817 13.2901 103.109 255 0 0
-40.636 -31.0376 166.074 255 0 0
76.0209 28.9327 124.375 255 0 0
-105.362 92.8829 358.148 255 0 0
93.9958 107.828 246.571 255 0 0
-96.3085 -43.9731 453.43 255 0 0
-30.1128 -21.8156 67.8322 255 0 0
113.944 161.332 479.72 255 0 0
-94.0751 124.701 309.269 255 0 0
90.8808 65.6128 158.487 255 0 0
-92.0032 73.3739 174.59 255 0 0
-96.7058 63.4008 197.674 255 0 0
34.0526 -18.6457 90.9765 255 0 0
-58.1096 -7.29752 247.37 255 0 0
55.1992 -32.0121 144.857 255 0 0
-89.5967 50.497 153.157 255 0 0
-93.4607 101.865 260.39 255 0 0
-86.9343 44.4818 244.015 255 0 0
-2.28346 1.34908 5.36601 255 0 0
56.0603 -53.1443 256.485 255 0 0
-86.8029 122.904 325.903 255 0 0
-60.8027 39.9629 125.927 255 0 0
144.798 182.973 393.304 255 0 0
0.0576286 -0.368966 1.16403 255 0 0
-10.0139 -25.9612 91.547 255 0 0
84.1104 138.124 327.583 255 0 0
-0.981123 2.31336 5.50343 255 0 0
-74.7577 16.976 180.761 255 0 0
105.275 40.2083 174.74 255 0 0
-67.2439 15.0948 164.057 255 0 0
95.3608 130.052 378.23 255 0 0
-0.942491 -0.622435 5.15322 255 0 0
-91.9244 100.98 284.048 255 0 0
3.74092 2.1642 15.1573 255 0 0
0.326679 0.394747 2.62579 255 0 0
70.333 9.5348 166.877 255 0 0
56.2045 14.103 130.688 255 0 0
56.592 -24.9192 117.004 255 0 0
72.3087 19.9857 131.343 255 0 0
-3.15304 -0.854935 6.95453 255 0 0
13.5607 -26.0111 75.9857 255 0 0
-70.4699 45.426 142.513 255 0 0
-14.4752 -34.8202 125.472 255 0 0
129.155 38.3895 337.366 255 0 0
-13.7803 -29.3415 136.399 255 0 0
-51.7663 11.3452 124.719 255 0 0
-68.246 88.165 221.292 255 0 0
-79.5085 87.2039 256.226 255 0 0
-65.3491 24.0271 111.638 255 0 0
-6.89819 -46.9829 359.166 255 0 0
-81.8684 0.77408 384.87 255 0 0
-35.1606 -23.3932 70.7863 255 0 0
-89.8203 -34.3945 451.293 255 0 0
-73.7223 43.1384 128.351 255 0 0
-53.0012 -11.7896 88.9441 255 0 0
56.2867 10.4732 127.982 255 0 0
47.5883 11.6229 112.071 255 0 0
109.646 82.399 183.778 255 0 0
-105.721 -18.3654 228.857 255 0 0
-5.90518 -33.8271 148.274 255 0 0
-89.1742 41.5464 195.982 255 0 0
-11.2003 -25.8347 86.4996 255 0 0
55.7284 -66.817 389.055 255 0 0
-55.9142 19.2463 114.838 255 0 0
-34.4809 -16.172 60.99 255 0 0
71.2618 -8.81609 168.608 255 0 0
-86.6185 112.757 275.227 255 0 0
78.2198 28.4733 130.4 255 0 0
233.466 176.094 390.184 255 0 0
-1.72246 2.72356 5.86652 255 0 0
-35.5267 -19.2047 67.278 255 0 0
-82.9947 31.3169 254.545 255 0 0
-2.70381 -22.5226 58.7923 255 0 0
53.4385 -37.3018 167.659 255 0 0
118.715 46.8225 204.208 255 0 0
-95.976 55.686 301.591 255 0 0
126.181 76.1864 320.8 255 0 0
-36.1756 -12.8485 65.6465 255 0 0
-88.7244 86.8412 200.317 255 0 0
0.155664 0.204285 3.37795 255 0 0
-34.0971 -13.7606 62.909 255 0 0
-34.5259 -21.8913 59.2226 255 0 0
-28.0496 -6.01542 58.1132 255 0 0
-3.74785 -4.01599 11.5756 255 0 0
-74.8054 -41.5137 435.799 255 0 0
57.5879 -28.4186 371.289 255 0 0
-8.55879 -28.0351 98.6804 255 0 0
12.6941 -22.5219 55.742 255 0 0
49.1625 -29.9475 88.8292 255 0 0
-126.347 131.068 380.973 255 0 0
-55.0589 22.6702 128.075 255 0 0
-35.8658 -14.3946 66.2306 255 0 0
-77.1955 -5.87593 145.864 255 0 0
51.0381 -31.0873 98.4571 255 0 0
120.806 66.4527 278.421 255 0 0
-88.8207 8.15493 344.58 255 0 0
-33.0934 15.1587 56.5896 255 0 0
0.641709 -0.156887 2.15869 255 0 0
0.0118738 0.452874 1.40925 255 0 0
-160.609 15.7688 481.315 255 0 0
13.5185 -28.9394 117.913 255 0 0
-77.967 100.144 246.425 255 0 0
-85.7837 -8.84368 192.805 255 0 0
-91.6232 43.6923 276.198 255 0 0
93.8111 -21.1084 196.584 255 0 0
-75.4909 -2.9273 184.862 255 0 0
58.1182 -33.8085 161.696 255 0 0
-81.0167 37.8771 142.585 255 0 0
58.1057 -24.7603 347.6 255 0 0
-78.8008 2.16253 341.032 255 0 0
-17.6734 -35.6868 114.296 255 0 0
-0.0742326 -0.120288 2.60602 255 0 0
-81.7953 -5.79064 154.904 255 0 0
-11.1307 -23.8614 108.979 255 0 0
-80.2365 0.636992 351.03 255 0 0
53.5227 -30.8687 98.6935 255 0 0
109.297 90.1703 273.734 255 0 0
-74.1338 15.3667 180.165 255 0 0
-71.5914 51.1857 141.046 255 0 0
0.0303097 0.512067 1.10227 255 0 0
74.6454 30.5582 270.118 255 0 0
58.5941 8.20945 144.737 255 0 0
-31.1828 -22.7189 72.1994 255 0 0
-83.0796 81.8342 188.016 255 0 0
64.4041 -40.4107 150.218 255 0 0
13.9965 -33.6979 150.862 255 0 0
111.644 42.2989 188.498 255 0 0
70.1001 112.072 246.414 255 0 0
-6.30239 -44.7335 257.059 255 0 0
-112.593 61.7373 216.118 255 0 0
-96.9358 129.401 406.493 255 0 0
-22.6912 -36.4274 155.721 255 0 0
-100.294 8.61335 391.391 255 0 0
-19.4102 -39.7425 126.208 255 0 0
-41.4005 -29.3098 184.374 255 0 0
69.4562 8.7351 229.618 255 0 0
-12.9246 5.84472 142.247 255 0 0
-105.149 -11.6961 307.824 255 0 0
-51.5019 20.8702 159.116 255 0 0
-84.9999 93.9855 256.121 255 0 0
111.658 40.7289 185.721 255 0 0
-13.9169 -29.7068 129.939 255 0 0
-0.418399 -0.158625 3.05506 255 0 0
127.801 91.9383 207.037 255 0 0
48.0841 -30.0387 94.5086 255 0 0
121.681 44.9497 380.615 255 0 0
-77.5294 44.4374 170.194 255 0 0
-32.6873 3.23612 125.329 255 0 0
-96.7914 73.0656 334.95 255 0 0
-103.106 58.234 325.341 255 0 0
157.972 98.21 263.965 255 0 0
-54.7614 11.1298 132.701 255 0 0
46.6112 -20.7714 83.8176 255 0 0
60.6259 -22.5826 356.615 255 0 0
-0.629461 1.27965 5.20221 255 0 0
44.7698 -25.8943 74.9372 255 0 0
145.023 107.802 408.563 255 0 0
58.0774 -29.7262 114.396 255 0 0
13.9397 -27.9707 92.2046 255 0 0
80.1492 13.5324 227.578 255 0 0
-34.4367 -8.35101 62.2051 255 0 0
-125.045 130.676 361.328 255 0 0
61.3363 -7.27877 245.563 255 0 0
75.8887 8.33171 265.713 255 0 0
-33.3612 -16.5084 74.0394 255 0 0
105.771 -25.9446 249.855 255 0 0
110.558 76.3112 194.005 255 0 0
101.06 75.8188 171.638 255 0 0
-0.986955 0.746642 4.30908 255 0 0
-34.0153 61.2751 130.339 255 0 0
-93.4843 78.7549 184.292 255 0 0
-31.8944 -23.2753 73.7631 255 0 0
15.6826 -59.7594 372.7 255 0 0
2.41525 0.248969 4.91554 255 0 0
127.363 97.1652 280.966 255 0 0
0.0709054 -0.03436 1.1914 255 0 0
-97.2794 -18.5213 201.109 255 0 0
124.231 55.1095 400.608 255 0 0
-32.2845 -15.9046 71.6061 255 0 0
-27.4116 -22.2062 67.7539 255 0 0
-74.4205 48.1794 197.223 255 0 0
-56.7151 18.1152 112.517 255 0 0
44.6751 -24.9066 73.1095 255 0 0
63.3871 55.6311 167.457 255 0 0
59.5227 -7.73994 239.402 255 0 0
48.7869 2.59 168.97 255 0 0
-8.2942 -28.7413 93.3807 255 0 0
73.3727 -31.3557 235.325 255 0 0
126.945 188.351 409.201 255 0 0
-3.40447 1.84385 8.00923 255 0 0
63.2587 -58.0771 293.411 255 0 0
-24.0103 -26.685 116.623 255 0 0
41.9932 3.86954 145.727 255 0 0
-0.0257545 -0.285652 2.59139 255 0 0
-35.4261 -15.3837 63.172 255 0 0
-29.2913 -22.0631 50.2177 255 0 0
-36.7173 -15.9307 79.6725 255 0 0
-0.171702 -0.182768 1.38037 255 0 0
-26.4 -19.9366 78.8012 255 0 0
64.3126 -0.528265 170.405 255 0 0
55.4915 -21.5299 106.522 255 0 0
-6.74789 -21.7698 76.2272 255 0 0
-27.3497 -28.7995 117.875 255 0 0
61.1962 -35.6549 112.686 255 0 0
89.2297 52.2598 194.775 255 0 0
-36.1456 21.9701 88.7862 255 0 0
-41.2256 84.9563 241.633 255 0 0
-96.8136 108.928 308.014 255 0 0
-90.9451 80.8174 303.391 255 0 0
-83.198 -20.432 148.687 255 0 0
62.8106 8.71427 119.582 255 0 0
92.3337 30.628 163.822 255 0 0
-0.0721272 0.668039 1.7737 255 0 0
140.787 124.268 370.017 255 0 0
-20.5763 -43.8207 218.28 255 0 0
67.605 5.73508 118.268 255 0 0
86.8059 28.8611 149.052 255 0 0
-103.197 67.8636 205.521 255 0 0
-81.7214 -17.6071 171.741 255 0 0
28.8802 1.71369 100.862 255 0 0
-0.0418328 0.241558 1.93624 255 0 0
-42.1887 -18.3841 75.4389 255 0 0
-114.253 -33.8554 483.126 255 0 0
51.3955 34.2524 89.4099 255 0 0
-51.8064 23.7889 102.845 255 0 0
-0.204744 0.219691 1.44231 255 0 0
50.1158 4.21973 134.194 255 0 0
-82.6186 53.218 198.722 255 0 0
56.035 4.87788 149.985 255 0 0
131.926 -22.2896 246.594 255 0 0
-0.228236 0.498669 1.42595 255 0 0
101.016 -29.3367 196.301 255 0 0
0.640172 -0.151492 2.29196 255 0 0
-107.994 -25.7432 190.764 255 0 0
-90.106 158.547 374.544 255 0 0
-63.1453 91.1367 265.945 255 0 0
-20.0108 -23.4214 78.426 255 0 0
143.571 98.0835 359.321 255 0 0
-71.0322 11.5327 193.47 255 0 0
149.733 165.85 395.625 255 0 0
0.00631094 -0.426521 1.33607 255 0 0
-0.0415359 -0.126954 1.29881 255 0 0
-119.8 130.51 387.059 255 0 0
-83.5295 30.6643 217.121 255 0 0
54.3599 -34.1451 127.007 255 0 0
-82.0527 12.6247 227.697 255 0 0
-3.49502 4.13194 11.4897 255 0 0
-66.8831 44.085 134.488 255 0 0
-0.168798 -0.37193 1.78284 255 0 0
137.779 54.5055 352.291 255 0 0
58.7498 11.4882 121.361 255 0 0
-2.19774 -2.69606 7.32585 255 0 0
49.9339 69.8439 211.64 255 0 0
-55.4798 16.5096 97.2743 255 0 0
71.539 9.05798 189.879 255 0 0
1.48549 1.38087 3.73011 255 0 0
-62.1709 45.9067 187.354 255 0 0
-20.3381 -24.7423 82.0717 255 0 0
-26.2205 -24.13 80.4165 255 0 0
-73.6763 4.64819 195.886 255 0 0
-50.0447 12.8825 105.492 255 0 0
-28.4275 -7.75385 54.5181 255 0 0
-37.2281 -13.0009 68.0059 255 0 0
-69.1125 24.0236 124.236 255 0 0
-45.3425 -25.5041 86.4578 255 0 0
2.44511 3.36435 36.4438 255 0 0
60.8568 3.91158 140.011 255 0 0
43.7803 8.36569 90.7507 255 0 0
-1.05524 -0.13237 2.95752 255 0 0
43.2645 -53.3479 247.768 255 0 0
57.5224 -37.3443 135.887 255 0 0
-0.681736 2.86978 6.43922 255 0 0
-33.022 -14.8772 76.9137 255 0 0
138.501 102.425 242.796 255 0 0
-101.71 9.73899 410.621 255 0 0
-68.2464 123.09 372.293 255 0 0
107.03 72.04 224.551 255 0 0
115.915 -18.4237 200.697 255 0 0
211.104 97.0063 386.338 255 0 0
-22.8377 -25.4836 80.8011 255 0 0
126.504 -20.6703 220.08 255 0 0
-12.8874 -20.1122 49.2014 255 0 0
0.135841 0.342958 1.33131 255 0 0
0.0600957 0.0863443 1.47732 255 0 0
-82.4786 3.64027 340.873 255 0 0
112.011 101.2 221.952 255 0 0
-32.6938 31.3514 174.05 255 0 0
-99.9139 73.1154 176.183 255 0 0
7.03232 -3.57305 12.3387 255 0 0
47.2411 -34.4233 142.758 255 0 0
-93.4957 75.438 175.626 255 0 0
36.1081 -26.2361 73.8024 255 0 0
0.055524 -2.13157 7.52081 255 0 0
-2.81834 -0.470694 8.84685 255 0 0
-32.3305 -27.2226 91.108 255 0 0
-39.6032 29.0869 72.8874 255 0 0
19.087 -8.5893 32.6442 255 0 0
-79.2221 145.169 386.219 255 0 0
-0.557679 -0.105149 3.0878 255 0 0
-41.3041 -15.9973 81.9675 255 0 0
-40.9598 -26.9681 182.357 255 0 0
-90.2702 121.009 368.667 255 0 0
0.103865 0.277388 1.24587 255 0 0
6.46771 14.7247 99.2827 255 0 0
94.7535 58.5371 160.897 255 0 0
2.10689 0.162202 4.64652 255 0 0
0.207438 -1.48159 3.36899 255 0 0
-83.0097 34.0175 247.547 255 0 0
-35.8466 -20.1672 66.6329 255 0 0
-74.6683 27.0745 290.896 255 0 0
136.945 -19.1522 298.414 255 0 0
54.5124 -28.0866 101.227 255 0 0
-44.4762 18.1135 137.154 255 0 0
-3.18375 3.96521 10.4121 255 0 0
-85.6553 4.02 258.187 255 0 0
-2.59778 -0.78932 5.74887 255 0 0
-32.4563 -21.4349 58.5763 255 0 0
-28.3302 -21.9457 68.5952 255 0 0
-33.3246 -15.9465 61.008 255 0 0
101.691 -21.4785 249.027 255 0 0
-85.5217 35.5842 242.561 255 0 0
117.982 45.1115 195.712 255 0 0
-0.0438226 0.558837 1.97405 255 0 0
-29.1448 -17.4792 83.1015 255 0 0
-100.332 -10.5601 289.496 255 0 0
-84.8842 -8.90039 203.712 255 0 0
1.50929 0.0460841 4.0085 255 0 0
-59.5151 19.5126 112.411 255 0 0
1.94252 -2.54761 6.54371 255 0 0
56.008 23.4157 104.562 255 0 0
114.655 -24.1817 280.588 255 0 0
150.451 87.1354 269.625 255 0 0
-127.716 132.999 376.082 255 0 0
-60.0752 27.212 127.365 255 0 0
-0.0718434 -0.624089 1.85677 255 0 0
-79.6623 143.769 371.316 255 0 0
-99.0183 79.3279 180.334 255 0 0
79.1372 20.9686 137.309 255 0 0
34.4221 -29.7748 90.1367 255 0 0
-0.0886256 -0.564141 1.7374 255 0 0
80.8744 58.0728 131.371 255 0 0
-69.2196 32.4165 121.668 255 0 0
-0.0592624 0.547571 1.2818 255 0 0
-75.596 -7.80269 217.709 255 0 0
-1.03893 -7.27167 21.2791 255 0 0
-73.9662 137.091 384.965 255 0 0
-0.0136569 -0.25438 1.93298 255 0 0
-84.2213 -10.4162 193.31 255 0 0
-16.0774 -16.8709 44.6705 255 0 0
21.6549 1.84921 58.7411 255 0 0
125.379 -78.3507 212.664 255 0 0
-0.867053 0.247399 3.96519 255 0 0
1.22083 0.995443 3.00841 255 0 0
-77.4547 35.2723 158.575 255 0 0
43.7414 -26.9617 72.6644 255 0 0
-92.7402 65.9035 169.326 255 0 0
-3.6331 -25.249 103.472 255 0 0
-36.9142 -14.5091 73.671 255 0 0
-39.738 -16.8477 124.937 255 0 0
167.932 -32.9214 395.229 255 0 0
-53.3992 -12.3089 93.7869 255 0 0
-60.8364 32.6853 115.378 255 0 0
-32.7381 -21.2056 55.2491 255 0 0
-2.80609 -33.9453 138.586 255 0 0
0.0816733 -0.543561 1.88656 255 0 0
-19.084 -22.4848 74.4444 255 0 0
52.5001 -33.9319 129.615 255 0 0
-28.4358 13.1217 63.6545 255 0 0
101.996 -18.1898 178.47 255 0 0
-56.4125 8.01799 138.802 255 0 0
12.1387 6.4881 24.3289 255 0 0
-8.47954 8.66399 18.5309 255 0 0
-3.06337 -23.6221 65.6311 255 0 0
-18.3206 -33.4537 126.142 255 0 0
-154.53 -27.1028 301.554 255 0 0
-30.4137 -35.1608 118.987 255 0 0
-68.7077 -10.2026 138.696 255 0 0
-101.822 62.8609 168.961 255 0 0
-30.2706 -22.7825 66.1613 255 0 0
53.7541 -41.5993 187.391 255 0 0
-134.629 141.109 383.992 255 0 0
54.447 4.37031 152.376 255 0 0
-36.0284 -23.8698 77.8299 255 0 0
84.0378 57.8387 148.764 255 0 0
-95.4117 65.938 302.647 255 0 0
54.755 -30.5733 89.3862 255 0 0
119.629 -41.1637 458.134 255 0 0
-26.1741 -24.1516 80.2708 255 0 0
-28.6714 50.1794 143.626 255 0 0
-154.451 206.327 459.046 255 0 0
-91.4826 -4.4512 366.766 255 0 0
-15.8315 -40.7552 219.943 255 0 0
-31.4252 35.5825 89.4335 255 0 0
-76.2288 -8.69859 168.001 255 0 0
59.1293 -0.393717 130.029 255 0 0
-5.36184 -23.5069 63.8672 255 0 0
-100.593 58.6914 175.518 255 0 0
182.826 92.7115 421.94 255 0 0
-95.2551 1.95896 336.862 255 0 0
-30.1092 -21.9964 51.8351 255 0 0
0.154681 -0.554699 2.13688 255 0 0
-29.4759 58.7962 160.147 255 0 0
-126.416 174.273 384.585 255 0 0
-4.79143 -0.602217 12.0103 255 0 0
-46.4883 -15.7022 145.932 255 0 0
-0.968585 1.23218 3.51178 255 0 0
-22.2991 -26.1858 77.1773 255 0 0
-30.909 -23.2055 66.8221 255 0 0
14.5236 -24.2942 63.8539 255 0 0
-37.6387 -23.0088 79.1559 255 0 0
61.7476 15.9973 129.653 255 0 0
-85.1454 -9.75084 187.809 255 0 0
-156.372 83.5772 292.667 255 0 0
-21.3371 -39.2514 147.614 255 0 0
-21.3491 -37.0854 187.986 255 0 0
-25.6609 9.98627 77.4215 255 0 0
16.0179 -36.1219 142.069 255 0 0
73.8847 -17.1193 232.463 255 0 0
-6.3064 2.10584 13.3804 255 0 0
12.193 -25.2595 87.271 255 0 0
-51.4629 20.929 131.497 255 0 0
132.295 53.3808 423.476 255 0 0
0.0230863 -0.525325 1.31032 255 0 0
30.1223 -56.8268 341.888 255 0 0
-21.4362 -41.4399 197.362 255 0 0
-102.478 57.1537 173.314 255 0 0
-0.113494 0.468529 1.76685 255 0 0
0.0838296 -1.10344 3.88832 255 0 0
-99.0741 65.3905 280.03 255 0 0
-56.5341 17.5491 117.298 255 0 0
31.082 -27.0626 81.5402 255 0 0
-84.0373 68.108 253.86 255 0 0
-22.9443 -20.6709 49.4389 255 0 0
-93.6645 -13.885 189.518 255 0 0
80.9018 7.14087 265.169 255 0 0
0.0924278 -0.23241 1.31497 255 0 0
-0.165849 -0.189696 1.39923 255 0 0
77.3521 21.6042 154.847 255 0 0
-42.2758 -17.8645 133.038 255 0 0
-120.456 -6.35906 285.999 255 0 0
-58.2708 14.1438 110.638 255 0 0
-71.1542 14.1922 189.784 255 0 0
0.0275466 0.473277 1.11239 255 0 0
93.9829 58.2226 157.447 255 0 0
125.014 166.7 386.975 255 0 0
-48.6334 5.01707 110.614 255 0 0
-147.039 66.39 440.19 255 0 0
-31.9381 -21.345 55.294 255 0 0
58.4341 -5.2345 135.335 255 0 0
-0.134138 -2.40418 7.75246 255 0 0
-1.06692 -0.89006 3.20126 255 0 0
58.3435 -10.5586 321.444 255 0 0
-18.4456 -21.2944 52.8646 255 0 0
-54.1089 13.1964 102.962 255 0 0
-1.58718 -0.826768 13.2648 255 0 0
-2.98741 -6.16154 25.0414 255 0 0
-65.0796 29.0449 116.753 255 0 0
15.0944 -29.9837 114.346 255 0 0
-89.949 120.833 362.538 255 0 0
56.0254 15.6142 112.141 255 0 0
38.2788 -53.3774 304.679 255 0 0
-91.2789 2.12695 414.655 255 0 0
-52.7882 22.1473 149.064 255 0 0
-85.7397 65.5924 256.079 255 0 0
52.6036 -33.7741 127.888 255 0 0
110.789 71.5378 189.617 255 0 0
-30.4848 -21.9412 67.4413 255 0 0
-3.42903 -23.5029 96.5099 255 0 0
5.80458 -15.0688 98.9215 255 0 0
100.947 61.4415 168.186 255 0 0
-23.0009 -33.2292 170.455 255 0 0
-28.3504 -21.2014 61.1812 255 0 0
-0.279355 -0.120883 2.32791 255 0 0
32.1997 -28.2073 83.8919 255 0 0
-68.4645 30.4327 197.935 255 0 0
-30.2391 -23.0839 70.1605 255 0 0
-61.9365 44.0753 112.718 255 0 0
44.2319 -27.8714 83.6579 255 0 0
-73.4694 -7.06965 137.407 255 0 0
-0.287837 -0.852623 2.70001 255 0 0
58.8079 13.2708 127.14 255 0 0
-0.111376 0.404679 1.78068 255 0 0
-130.534 52.1083 340.323 255 0 0
-12.6158 -21.4903 50.5301 255 0 0
-8.71611 -26.7157 90.4656 255 0 0
65.83 -0.653481 141.14 255 0 0
-73.4888 100.859 223.472 255 0 0
69.3044 -6.4001 161.336 255 0 0
35.9722 -22.3717 68.2451 255 0 0
-50.3438 2.40584 113.632 255 0 0
-90.707 -9.90422 217.785 255 0 0
118.677 216.844 466.305 255 0 0
46.5171 -27.0096 124.36 255 0 0
36.9652 -38.613 207.379 255 0 0
61.7662 -36.7974 122.176 255 0 0
-72.0385 34.3841 145.995 255 0 0
44.3994 6.2787 93.3898 255 0 0
-35.2398 -15.6219 93.9468 255 0 0
14.1755 -27.1968 95.662 255 0 0
63.2432 14.499 130.758 255 0 0
60.8518 -3.71223 132.631 255 0 0
61.0325 -34.9649 140.11 255 0 0
94.192 5.98487 240.74 255 0 0
-16.2558 -23.5977 71.7836 255 0 0
-76.6437 57.3358 144.04 255 0 0
41.0314 -34.0078 101.649 255 0 0
-86.9002 54.8834 274.148 255 0 0
54.6997 -11.7298 218.926 255 0 0
0.115375 0.44324 1.44237 255 0 0
-22.4543 -41.1341 184.812 255 0 0
56.7284 2.11581 134.642 255 0 0
15.8826 2.48405 40.3063 255 0 0
1.33997 -1.43578 3.68414 255 0 0
-53.652 12.1886 115.577 255 0 0
-55.9934 7.9394 130.083 255 0 0
58.6281 2.64268 216.799 255 0 0
61.8042 5.85355 210.339 255 0 0
44.3829 -27.8925 83.8549 255 0 0
-0.949063 1.01438 3.0396 255 0 0
-84.3448 96.8517 250.969 255 0 0
59.9202 10.884 121.871 255 0 0
-0.00214207 -0.131449 1.08167 255 0 0
66.3716 2.57123 186.9 255 0 0
0.260227 0.0139651 1.43197 255 0 0
-54.6256 13.2779 99.3861 255 0 0
130.75 -36.1913 468.957 255 0 0
-21.1121 -22.8719 57.6219 255 0 0
60.311 -30.5326 117.69 255 0 0
-16.9469 -22.9198 74.6327 255 0 0
49.8871 -2.70162 246.383 255 0 0
-19.5489 -24.8907 79.3 255 0 0
-32.7979 -23.624 65.9224 255 0 0
-80.0481 35.6986 177.763 255 0 0
-81.7172 36.4619 180.504 255 0 0
-67.28 -3.70044 183.386 255 0 0
-60.3079 -2.91686 134.351 255 0 0
126.169 -25.4995 272.085 255 0 0
-70.645 127.428 325.162 255 0 0
139.551 94.1301 284.295 255 0 0
50.3225 -3.51418 104.536 255 0 0
-88.2699 72.9714 160.826 255 0 0
-25.3941 -21.8246 59.55 255 0 0
104.428 42.399 183.58 255 0 0
65.7595 -3.07408 140.845 255 0 0
89.7937 44.6115 149.35 255 0 0
96.045 53.4257 163.574 255 0 0
-34.0339 -15.8187 77.2582 255 0 0
12.7561 -31.934 134.54 255 0 0
56.6732 4.16725 145.455 255 0 0
-54.7289 3.59029 111.839 255 0 0
-18.5427 -29.9222 125.796 255 0 0
-88.138 43.4765 245.725 255 0 0
-26.4328 -27.1119 93.6705 255 0 0
58.1948 -65.6481 324.577 255 0 0
91.6326 149.997 400.009 255 0 0
-46.1652 10.0718 98.8865 255 0 0
-85.5266 13.3829 265.679 255 0 0
-43.2938 33.066 74.3777 255 0 0
-0.0865348 0.410478 1.47626 255 0 0
-36.4206 -20.5733 98.1693 255 0 0
-90.066 -19.9023 221.402 255 0 0
-69.0999 122.946 267.189 255 0 0
61.5714 -3.79931 248.912 255 0 0
-1.04561 -0.678875 3.05516 255 0 0
-78.9307 -15.3558 153.453 255 0 0
-25.381 47.0094 126.605 255 0 0
-55.4193 9.9959 139.293 255 0 0
-14.7996 -26.9647 83.9644 255 0 0
-93.4338 71.7853 158.413 255 0 0
5.21072 6.93744 15.207 255 0 0
-64.8075 -4.56285 138.094 255 0 0
-46.9892 -5.54421 103.049 255 0 0
78.403 -22.3786 279.943 255 0 0
-23.1453 -26.4024 92.2281 255 0 0
-4.83239 -21.7084 70.5975 255 0 0
58.3448 3.85014 219.536 255 0 0
-77.8277 -0.605246 312.882 255 0 0
-38.4495 -23.8222 75.3987 255 0 0
135.456 -24.762 251.193 255 0 0
-22.9334 -20.6671 49.4148 255 0 0
-34.1866 -35.8414 186.481 255 0 0
-19.3878 -26.3342 100.014 255 0 0
-47.9032 15.9891 101.321 255 0 0
-0.0615957 0.492974 1.97218 255 0 0
76.436 117.837 339.091 255 0 0
-120.658 136.054 335.022 255 0 0
0.154806 -0.505658 2.0872 255 0 0
-11.7929 -24.7168 79.5592 255 0 0
-32.9542 -20.9538 96.075 255 0 0
-16.5968 -21.9618 72.1191 255 0 0
-1.28733 -29.755 109.519 255 0 0
127.14 -26.6817 244.75 255 0 0
-29.509 -23.6403 74.7986 255 0 0
-56.287 13.6446 102.442 255 0 0
-1.52291 -2.34859 6.169 255 0 0
-4.71041 -22.491 73.0525 255 0 0
22.7393 -0.9419 50.6827 255 0 0
-82.556 13.8714 268.514 255 0 0
-84.8 46.9224 181.674 255 0 0
66.46 5.39933 137.959 255 0 0
61.241 -48.4266 231.262 255 0 0
-88.1319 71.5037 155.651 255 0 0
73.2339 -5.32429 159.12 255 0 0
-6.87729 -23.6923 73.7878 255 0 0
119.769 47.5461 198.795 255 0 0
-61.0342 -2.00603 135.352 255 0 0
-26.4796 -20.5148 50.331 255 0 0
-21.5347 -31.4938 123.783 255 0 0
-31.7874 -24.1592 78.9286 255 0 0
-68.7673 -2.67991 153.019 255 0 0
121.615 71.0255 301.35 255 0 0
-139.788 -16.4742 290.611 255 0 0
-57.7264 6.76879 172.902 255 0 0
-98.3437 66.3177 219.912 255 0 0
89.5684 49.3399 152.612 255 0 0
59.4855 13.1985 129.884 255 0 0
56.7016 -13.3006 261.042 255 0 0
52.918 3.40933 124.863 255 0 0
-98.5665 -0.434992 324.781 255 0 0
-27.2672 -17.2742 77.461 255 0 0
-92.0786 21.6225 388.678 255 0 0
-26.6861 -23.1937 67.6656 255 0 0
-27.9226 -21.2698 58.7224 255 0 0
37.3971 -25.8093 67.7578 255 0 0
66.379 -4.38478 144.347 255 0 0
-108.825 20.4865 292.213 255 0 0
-83.4608 115.678 246.118 255 0 0
-116.466 52.7886 239.068 255 0 0
-90.7108 90.6024 370.168 255 0 0
0.0513045 -0.437595 1.26585 255 0 0
-84.3439 87.8383 271.619 255 0 0
-29.348 -18.5805 83.5049 255 0 0
120.235 110.881 378.877 255 0 0
-38.3428 -15.5436 72.6675 255 0 0
-31.034 -31.9385 110.355 255 0 0
-5.03692 -25.2813 81.8858 255 0 0
-0.00781357 -1.59984 3.88497 255 0 0
0.0542209 0.0765318 1.30883 255 0 0
129.066 77.2841 351.918 255 0 0
-0.00776202 -1.60588 3.88531 255 0 0
-22.7854 -37.0532 157.13 255 0 0
-17.4931 -35.1266 122.696 255 0 0
1.51198 -1.90559 5.25037 255 0 0
-12.474 -24.135 70.861 255 0 0
-69.1706 30.8602 124.161 255 0 0
4.67553 -1.0845 9.39548 255 0 0
-120.168 135.302 362.158 255 0 0
37.7815 -21.1916 63.4347 255 0 0
-27.2901 -20.8216 57.3631 255 0 0
-87.4848 40.3446 165.042 255 0 0
56.403 -30.1709 108.353 255 0 0
23.7404 -11.7722 43.349 255 0 0
-93.8634 63.2322 220.837 255 0 0
-37.1481 27.3251 68.2995 255 0 0
68.8349 14.8881 116.756 255 0 0
-0.668595 0.942738 3.06775 255 0 0
55.0701 10.9634 131.887 255 0 0
-78.7103 35.6059 165.588 255 0 0
-71.3429 58.623 130.764 255 0 0
0.109306 -0.0876607 1.51555 255 0 0
71.7501 -4.94802 148.524 255 0 0
-10.4312 -22.9246 58.1333 255 0 0
-5.08323 -29.7578 105.84 255 0 0
-1.44823 -1.47252 4.76253 255 0 0
-10.4496 -22.7971 58.242 255 0 0
-4.97928 -24.887 80.822 255 0 0
58.6385 9.74246 126.809 255 0 0
-76.6122 -9.49166 141.594 255 0 0
62.4517 -2.61269 166.423 255 0 0
83.8056 44.2428 144.408 255 0 0
108.487 -18.6179 259.327 255 0 0
12.1844 -1.88153 22.5362 255 0 0
-89.9104 -15.9435 171.236 255 0 0
11.2347 0.414387 34.6413 255 0 0
-35.2366 69.8255 192.097 255 0 0
-48.9663 20.6921 108.504 255 0 0
52.2141 -30.3796 93.4835 255 0 0
-83.5481 33.7707 214.447 255 0 0
160.007 -33.4577 311.357 255 0 0
-72.1368 3.74147 215.677 255 0 0
-5.18764 -5.02079 14.7826 255 0 0
-0.166729 -28.0295 95.2621 255 0 0
-3.4235 -2.45041 8.28418 255 0 0
-3.98367 -22.071 53.8902 255 0 0
0.0240056 0.0421495 1.25502 255 0 0
-13.1876 -20.6579 61.5928 255 0 0
-111.708 82.7357 190.775 255 0 0
0.28011 -0.662406 1.68243 255 0 0
-3.29321 -23.4648 79.7988 255 0 0
239.556 -33.1569 425.792 255 0 0
-3.8464 2.61716 9.57328 255 0 0
-54.7206 12.3282 114.343 255 0 0
6.71224 -22.6185 69.2112 255 0 0
64.145 -17.202 265.49 255 0 0
108.746 64.8219 186.814 255 0 0
14.1976 -23.446 59.4295 255 0 0
-20.7494 -27.649 100.935 255 0 0
-0.0852004 -0.293602 1.23981 255 0 0
12.7176 -24.053 63.5089 255 0 0
-0.761595 -3.04756 13.1238 255 0 0
-0.191524 -26.3551 89.8105 255 0 0
171.77 79.5582 302.33 255 0 0
134.627 78.5224 243.358 255 0 0
-94.411 83.8914 178.873 255 0 0
-60.5957 17.3547 103.748 255 0 0
-79.3151 -17.7998 230.744 255 0 0
76.4414 -49.3443 172.232 255 0 0
-28.0428 -24.2929 70.7119 255 0 0
55.2645 1.92462 131.396 255 0 0
-106.321 87.577 192.23 255 0 0
-51.0944 1.45277 173.531 255 0 0
-32.4319 -21.9134 55.1321 255 0 0
0.0102558 0.397748 1.2498 255 0 0
41.1531 -42.9402 208.511 255 0 0
-0.26198 -0.00135157 2.064 255 0 0
59.1539 -39.1429 104.597 255 0 0
-103.928 2.0698 359.461 255 0 0
-86.752 -16.1689 410.77 255 0 0
63.6426 -2.75801 169.566 255 0 0
28.9764 1.57442 69.0049 255 0 0
-0.129922 0.153433 1.29463 255 0 0
3.97776 -30.3547 118.493 255 0 0
-2.02411 -0.396209 5.76969 255 0 0
71.5136 14.0558 133.092 255 0 0
-57.768 6.5899 101.03 255 0 0
0.972642 -65.6531 353.602 255 0 0
-118.965 95.6272 229.164 255 0 0
-108.679 94.1529 240.045 255 0 0
-48.2552 5.23793 113.109 255 0 0
-90.2324 -6.76682 243.538 255 0 0
-123.335 170.185 371.804 255 0 0
134.031 -27.544 260.999 255 0 0
-0.215961 -0.544024 1.43187 255 0 0
-95.2538 73.359 158.538 255 0 0
-69.4017 53.8162 202.621 255 0 0
61.7184 -28.7049 189.857 255 0 0
-38.4457 -25.4008 76.6514 255 0 0
-4.56865 -28.5165 108.099 255 0 0
17.0984 -41.5784 253.71 255 0 0
0.175083 -0.547082 1.90877 255 0 0
-4.50674 -25.1572 82.5653 255 0 0
74.0949 9.77149 221.797 255 0 0
-0.360972 -0.671221 1.7435 255 0 0
-37.4196 -18.1767 71.8752 255 0 0
-61.2201 -21.9359 156.3 255 0 0
-0.132744 0.791949 4.03687 255 0 0
118.554 68.6963 214.433 255 0 0
-89.6 -1.53655 293.924 255 0 0
-63.4252 70.9039 184.574 255 0 0
-64.4686 1.30927 222.188 255 0 0
-88.297 183.205 499.683 255 0 0
0.109331 0.817205 2.20595 255 0 0
-42.8808 -18.116 73.1675 255 0 0
-96.9688 53.2387 162.951 255 0 0
-107.848 -14.6274 403.79 255 0 0
-94.4589 126.303 390.678 255 0 0
0.904761 0.682298 2.89693 255 0 0
2.10971 -23.6814 63.2894 255 0 0
65.554 8.53248 127.506 255 0 0
-17.2674 -46.3159 250.782 255 0 0
74.0664 -7.57296 271.844 255 0 0
100.779 55.1711 171.759 255 0 0
92.6769 -67.2558 178.309 255 0 0
-61.4325 16.7679 108.304 255 0 0
-31.36 -21.3707 55.7392 255 0 0
-35.4525 -24.2098 63.155 255 0 0
-98.9314 71.2267 165.347 255 0 0
-1.26555 -32.4705 119.118 255 0 0
-44.4121 35.1112 136.511 255 0 0
56.0064 -0.782536 236.781 255 0 0
0.036933 0.564172 1.38453 255 0 0
-37.9163 -15.4987 78.4631 255 0 0
-20.7682 -19.242 44.088 255 0 0
0.0712588 -0.74312 2.63998 255 0 0
5.56722 4.41914 15.5588 255 0 0
