ply
format ascii 1.0
element vertex 1435
property float x
property float y
property float z
property uchar red
property uchar green
property uchar blue
end_header
167.822 -28.9756 333.395 255 0 0
2.0005 0.552547 4.79674 255 0 0
-43.2715 -11.1417 81.7238 255 0 0
-35.3971 -18.8184 89.8413 255 0 0
127.788 7.10091 326.116 255 0 0
-29.67 -16.1198 89.3558 255 0 0
-38.4127 -9.72881 74.1699 255 0 0
-4.40287 -1.12334 9.81846 255 0 0
-57.7097 23.7953 150.869 255 0 0
-0.0606246 -0.24934 1.47207 255 0 0
164.962 -28.8056 327.733 255 0 0
-40.8201 -11.265 82.3616 255 0 0
44.5663 -25.8686 142.966 255 0 0
135.023 -47.8307 261.882 255 0 0
61.9482 -27.3307 179.569 255 0 0
-29.8888 -12.4743 75.5469 255 0 0
148.821 11.1705 281.604 255 0 0
-32.5808 -9.72472 115.102 255 0 0
0.174881 -0.309928 1.3678 255 0 0
-46.5634 -33.4436 197.23 255 0 0
46.592 -33.4523 179.261 255 0 0
-29.5239 -30.9341 113.223 255 0 0
-0.028937 0.260458 5.2844 255 0 0
121.051 -5.63359 292.159 255 0 0
65.059 -25.8418 183.885 255 0 0
-47.053 -13.003 95.1253 255 0 0
2.9591 -0.701136 6.45787 255 0 0
-25.4943 78.6149 184.076 255 0 0
-9.22264 -7.19335 24.5353 255 0 0
-0.275612 -0.218386 1.52569 255 0 0
-41.5799 -10.7055 78.4636 255 0 0
31.034 -8.59531 117.167 255 0 0
-108.234 121.074 425.742 255 0 0
129.461 -3.03504 331.494 255 0 0
-0.0653877 0.0491085 1.54217 255 0 0
-42.6259 -12.4382 82.8174 255 0 0
147.775 30.8421 304.565 255 0 0
-56.6941 -65.5581 455.037 255 0 0
-29.5919 -45.2885 327.54 255 0 0
-184.082 -25.253 349.738 255 0 0
-24.3871 -22.314 57.8917 255 0 0
61.4112 -33.2315 154.321 255 0 0
-28.5404 -15.0934 84.3466 255 0 0
43.9047 -1.95812 101.61 255 0 0
128.029 40.6332 247.43 255 0 0
152.932 -21.3065 354.609 255 0 0
-3.89279 -0.907527 11.2653 255 0 0
-2.61735 6.26408 14.4957 255 0 0
-242.892 -17.9189 415.374 255 0 0
31.1458 -17.9337 100.486 255 0 0
210.93 -29.302 488.926 255 0 0
-27.5647 -13.8935 85.6243 255 0 0
-89.7475 3.01752 297.335 255 0 0
-56.6318 -13.0277 100.743 255 0 0
-32.4836 -21.1713 121.905 255 0 0
-31.8786 -37.8995 199.502 255 0 0
150.101 -55.4288 316.018 255 0 0
16.0729 8.57493 27.1913 255 0 0
-0.376873 -0.082049 1.66492 255 0 0
98.4197 -22.4874 414.945 255 0 0
-190.694 -36.087 359.378 255 0 0
111.626 9.27107 274.518 255 0 0
-28.9909 -21.2456 76.3164 255 0 0
-20.4658 -49.866 368.984 255 0 0
-246.726 85.8396 452.984 255 0 0
-41.2546 -37.9249 374.414 255 0 0
78.2576 -59.1468 223.517 255 0 0
157.311 46.9017 361.172 255 0 0
31.9719 -22.6123 191.08 255 0 0
-181.376 -35.4913 359.305 255 0 0
148.745 44.4628 341.58 255 0 0
151.593 2.60521 414.41 255 0 0
9.50378 -7.30072 25.6239 255 0 0
-30.4151 -17.3443 74.5714 255 0 0
-23.6567 -27.9097 147.061 255 0 0
165.557 19.7643 338.253 255 0 0
-163.477 -22.3072 310.464 255 0 0
0.488771 -0.284809 2.73426 255 0 0
-247.244 -47.6868 466.021 255 0 0
-35.7617 -33.2279 182.555 255 0 0
0.100906 0.370472 1.60263 255 0 0
250.915 -24.7909 412.513 255 0 0
-26.6192 -18.3745 48.6207 255 0 0
-24.0386 -23.6666 74.609 255 0 0
-29.5167 -22.0799 75.3822 255 0 0
111.017 12.1276 261.399 255 0 0
-54.4627 40.8785 140.087 255 0 0
-26.8266 -12.6804 66.5649 255 0 0
-0.29818 -0.0886507 2.31847 255 0 0
24.3292 -8.85657 62.8289 255 0 0
-0.437955 -0.302002 2.9369 255 0 0
8.27573 -3.63816 36.0381 255 0 0
166.954 27.2779 304.835 255 0 0
187.644 -24.1511 434.783 255 0 0
1.25508 -0.380417 3.75198 255 0 0
279.546 68.4816 482.439 255 0 0
162.862 19.4089 437.449 255 0 0
-120.434 1.03939 366.453 255 0 0
59.2642 -17.2272 108.617 255 0 0
100.782 -35.6342 213.34 255 0 0
-61.3496 47.3901 151.085 255 0 0
-38.7805 -12.9329 68.0449 255 0 0
175.158 6.05489 312.189 255 0 0
-29.0631 -20.5625 77.8003 255 0 0
-0.519503 -0.196988 2.35006 255 0 0
2.17042 -1.31091 4.70223 255 0 0
137.914 93.0767 352.237 255 0 0
239.44 -69.6823 458.098 255 0 0
124.068 -3.26347 276.962 255 0 0
-31.9839 -11.5129 62.9523 255 0 0
-38.2869 120.315 469.686 255 0 0
-28.6991 -35.1993 264.586 255 0 0
-2.37752 -1.31495 10.8493 255 0 0
122.855 -13.2433 298.943 255 0 0
-120.745 -6.31705 230.569 255 0 0
-31.9815 -19.8455 101.923 255 0 0
-34.9564 -34.8015 196.88 255 0 0
75.7298 -20.201 291.091 255 0 0
180.604 -53.0952 328.776 255 0 0
-32.0431 16.448 89.3539 255 0 0
-0.257964 -0.564564 1.42239 255 0 0
1.68116 0.00630242 5.85039 255 0 0
0.436253 -0.164114 1.76751 255 0 0
-0.178894 -0.213214 1.70042 255 0 0
-6.15008 2.24109 27.9942 255 0 0
3.19691 0.217381 6.31026 255 0 0
-2.7498 2.80863 17.2153 255 0 0
-28.1832 -20.4398 71.0075 255 0 0
36.9667 83.0252 480.479 255 0 0
28.9726 -23.6699 84.6807 255 0 0
-211.226 7.11919 354.781 255 0 0
-0.173731 -0.2189 1.72127 255 0 0
-182.195 -13.6258 321.976 255 0 0
-55.9117 -12.8445 99.4481 255 0 0
-0.395219 -0.0437311 1.78253 255 0 0
-27.3604 -11.2286 65.3255 255 0 0
-32.2273 -12.9351 63.5765 255 0 0
0.333282 -0.640891 4.60598 255 0 0
-37.8067 -27.5479 159.654 255 0 0
116.149 -46.286 254.37 255 0 0
-76.8796 -31.4503 252.922 255 0 0
-25.1827 -23.5197 78.143 255 0 0
0.789063 0.931053 2.45836 255 0 0
44.1028 -33.5083 148.501 255 0 0
141.856 -34.1909 288.584 255 0 0
-119.4 -26.8023 347.484 255 0 0
118.994 -41.1761 251.806 255 0 0
-32.9115 -16.2896 91.3104 255 0 0
87.1654 -34.3158 214.284 255 0 0
165.673 -41.3602 346.364 255 0 0
-240.65 78.2119 455.503 255 0 0
-61.4455 -19.2543 119.368 255 0 0
-0.697315 -0.347482 2.96199 255 0 0
-44.2493 -16.6112 129.51 255 0 0
-32.7026 20.2735 86.834 255 0 0
33.8975 -23.1562 63.2686 255 0 0
-57.2919 22.4585 233.833 255 0 0
2.75841 -24.4958 69.3829 255 0 0
0.200399 -0.0515253 1.55521 255 0 0
31.6565 -30.5987 130.037 255 0 0
-207.303 -0.753335 356.314 255 0 0
-2.50678 2.71381 12.1151 255 0 0
-28.497 -19.8737 67.4453 255 0 0
19.0146 -7.73407 53.7649 255 0 0
-0.0381575 -0.318713 1.85294 255 0 0
-29.3241 -13.9277 63.2516 255 0 0
102.282 -14.8999 250.276 255 0 0
-26.7366 10.1944 215.671 255 0 0
-29.2063 -26.8492 116.264 255 0 0
186.589 -56.9559 336.145 255 0 0
3.62053 0.707375 7.20113 255 0 0
-24.9107 -23.2433 59.1543 255 0 0
-33.112 -38.3211 194.26 255 0 0
1.99427 -1.01028 5.07792 255 0 0
158.659 -23.1304 336.935 255 0 0
261.532 -41.7793 498.348 255 0 0
-78.6572 -0.790359 152.163 255 0 0
0.172766 -0.205223 1.73536 255 0 0
-1.01958 0.939625 5.21492 255 0 0
14.1371 -11.5154 42.1996 255 0 0
-1.88367 -1.53249 4.16299 255 0 0
-2.25508 -0.452479 12.9246 255 0 0
-119.701 -12.3256 227.186 255 0 0
-0.0673333 -0.354744 1.76463 255 0 0
151.48 28.1104 373.864 255 0 0
-1.80167 0.0687492 4.19163 255 0 0
69.5778 -25.3574 169.476 255 0 0
140.556 25.8177 306.07 255 0 0
-37.7905 -12.5354 72.9609 255 0 0
12.7312 37.1476 337.067 255 0 0
-0.396037 -0.194355 1.65378 255 0 0
134.713 15.9691 251.77 255 0 0
3.89145 0.650628 10.456 255 0 0
-76.2199 -17.0835 184.859 255 0 0
73.6948 -2.1341 165.215 255 0 0
122.656 -33.1424 434.029 255 0 0
164.186 1.03933 342.981 255 0 0
189.283 64.968 397.041 255 0 0
262.453 100.113 456.015 255 0 0
48.3532 -31.936 144.317 255 0 0
0.115939 0.5114 1.63458 255 0 0
-0.213156 -0.259289 1.43073 255 0 0
152.771 -0.590455 291.623 255 0 0
169.282 32.0058 372.103 255 0 0
0.0485274 -0.228471 1.30112 255 0 0
0.24222 -0.0125538 1.39649 255 0 0
0.430312 0.009013 1.74875 255 0 0
154.68 7.57697 304.795 255 0 0
-18.089 2.79704 47.3059 255 0 0
159.22 18.6009 343.369 255 0 0
47.4851 -37.5807 164.654 255 0 0
48.3067 -33.2488 169.209 255 0 0
39.4214 -31.5975 124.834 255 0 0
-26.1648 -24.3796 85.5973 255 0 0
-115.866 -8.21822 222.379 255 0 0
100.906 -38.9181 175.444 255 0 0
-25.7507 -24.3745 79.9487 255 0 0
-15.4014 -40.9797 328.738 255 0 0
143.437 -56.3131 248.956 255 0 0
-32.5591 -16.9186 67.3574 255 0 0
198.894 -30.6105 378.002 255 0 0
-1.79135 -1.48377 6.02417 255 0 0
-191.172 68.7039 387.264 255 0 0
-178.278 -51.5588 493.445 255 0 0
-29.187 -14.371 50.8284 255 0 0
0.787805 0.443551 2.25267 255 0 0
149.551 -47.1776 306.067 255 0 0
0.392964 6.57371 21.3523 255 0 0
153.043 10.8651 405.407 255 0 0
-1.62147 -2.23937 16.1211 255 0 0
0.619269 0.781796 2.18443 255 0 0
-36.9464 -41.4632 230.934 255 0 0
-10.3153 -3.40428 18.7266 255 0 0
59.9306 -32.0052 145.78 255 0 0
-0.179215 0.0292792 1.58741 255 0 0
11.7464 -8.88391 30.3178 255 0 0
29.2042 -38.255 167.446 255 0 0
-26.6995 -23.1332 81.6455 255 0 0
-45.082 27.0177 464.682 255 0 0
-28.819 -31.0011 139.302 255 0 0
50.131 -32.2187 149.776 255 0 0
186.885 47.0823 382.97 255 0 0
-67.8362 52.8161 163.25 255 0 0
-55.9952 41.6815 142.916 255 0 0
291.599 147.857 487.382 255 0 0
-4.76289 2.54203 12.7184 255 0 0
68.8675 -29.0578 131.701 255 0 0
35.9717 -37.2349 153.1 255 0 0
-95.3693 -20.5648 325.783 255 0 0
125.142 25.4507 277.896 255 0 0
159.989 2.31185 352.843 255 0 0
17.8818 9.55693 31.6438 255 0 0
-0.217534 0.0422777 5.96107 255 0 0
-203.399 -33.4039 419.559 255 0 0
135.546 -42.6517 277.519 255 0 0
-37.4818 14.2076 152.124 255 0 0
31.6321 -29.1548 95.1471 255 0 0
51.9909 -33.7993 155.267 255 0 0
0.405326 -0.04005 5.88165 255 0 0
-187.722 61.7838 363.289 255 0 0
-0.239824 0.650454 2.17342 255 0 0
35.3292 -25.2593 91.0064 255 0 0
-1.05979 -0.0108606 3.16086 255 0 0
0.32556 0.108783 2.84231 255 0 0
140.023 18.0771 232.573 255 0 0
0.421556 -0.290035 2.04952 255 0 0
2.73666 -27.0299 79.9705 255 0 0
14.5995 3.23609 24.5736 255 0 0
118.539 11.8619 302.591 255 0 0
-26.433 -20.5668 54.6266 255 0 0
-0.402351 -0.664336 1.96318 255 0 0
-31.082 -19.0285 78.6454 255 0 0
-0.355191 -0.0106475 1.65421 255 0 0
156.559 31.5532 268.238 255 0 0
-1.36122 3.74581 10.0417 255 0 0
-33.854 -40.8052 115.995 255 0 0
65.625 -60.4876 195.492 255 0 0
-33.6158 -17.4334 60.8678 255 0 0
171.893 -48.1637 304.649 255 0 0
-0.334143 -0.173147 1.66587 255 0 0
35.6967 -32.9748 104.497 255 0 0
226.544 21.7261 398.161 255 0 0
133.566 38.2641 300.218 255 0 0
-27.421 -26.8713 71.642 255 0 0
-31.2729 -56.3652 405.777 255 0 0
4.21102 -0.283842 9.70205 255 0 0
-24.8009 -25.411 102.177 255 0 0
9.20326 2.74697 17.5078 255 0 0
-0.889092 -0.475738 3.3323 255 0 0
12.7549 -9.57335 32.2184 255 0 0
-0.67905 -0.240581 3.19312 255 0 0
-46.3354 -53.2039 275.279 255 0 0
128.723 19.5015 268.958 255 0 0
0.894055 2.9748 15.474 255 0 0
-0.456476 -0.593558 3.56993 255 0 0
175.454 -61.3543 335.158 255 0 0
0.738291 0.0632457 2.99537 255 0 0
197.682 -42.101 445.27 255 0 0
41.4473 -26.9769 73.6133 255 0 0
168.361 -10.4233 366.627 255 0 0
-112.884 43.9495 393.63 255 0 0
121.204 34.9623 265.779 255 0 0
0.0293949 -0.237901 1.12371 255 0 0
-77.7928 -5.48122 145.557 255 0 0
58.109 -38.1884 163.907 255 0 0
147.871 30.5648 333.641 255 0 0
156.421 9.55156 320.56 255 0 0
-0.927703 -0.508939 4.94095 255 0 0
4.12602 31.389 70.7053 255 0 0
-38.7696 30.2619 92.6764 255 0 0
36.3595 -24.0616 67.9998 255 0 0
-37.8677 -35.9048 124.782 255 0 0
-9.98398 -2.43508 18.0128 255 0 0
164.848 34.2947 318.136 255 0 0
122.656 -25.4668 443.565 255 0 0
91.7485 -40.8672 190.409 255 0 0
-26.7285 -18.354 88.1027 255 0 0
-10.0582 -2.46341 18.1552 255 0 0
-160.17 -12.6029 282.925 255 0 0
-30.8855 25.4491 75.3202 255 0 0
0.242796 -0.00645807 1.39744 255 0 0
154.496 12.0226 278.441 255 0 0
62.7767 31.0008 118.009 255 0 0
31.073 -28.242 101.363 255 0 0
-42.1459 -12.1432 73.3788 255 0 0
-0.579861 -0.38564 4.21724 255 0 0
-3.13034 2.6148 14.6892 255 0 0
5.49499 64.6864 336.921 255 0 0
-0.544691 -0.47924 2.262 255 0 0
-8.41281 -3.03078 40.1326 255 0 0
81.7781 -36.3904 170.496 255 0 0
-0.634785 -1.55139 9.69713 255 0 0
136.933 11.8434 308.908 255 0 0
50.1037 -29.6766 150.249 255 0 0
32.4667 -29.5613 100.704 255 0 0
-33.2148 -17.2223 60.1286 255 0 0
51.3826 107.308 251.39 255 0 0
46.6916 -23.2188 158.462 255 0 0
-102.748 182.156 476.434 255 0 0
130.056 -23.3521 328.118 255 0 0
-58.4406 41.9758 246.001 255 0 0
12.7681 -8.81485 28.205 255 0 0
0.241743 -0.365295 1.42969 255 0 0
160.021 10.2681 287.611 255 0 0
-20.709 19.545 60.9658 255 0 0
247.446 121.515 471.166 255 0 0
119.708 9.08921 270.028 255 0 0
-66.1817 -66.9917 321.411 255 0 0
-0.00245792 -0.0556399 1.09739 255 0 0
94.6208 -62.4295 269.044 255 0 0
86.6315 -29.1432 219.849 255 0 0
2.17287 0.882985 5.80558 255 0 0
-34.9528 -23.7654 131.952 255 0 0
233.217 72.6572 418.903 255 0 0
28.6761 -41.034 173.036 255 0 0
120.893 -8.86377 452.08 255 0 0
27.8763 -35.9409 174.907 255 0 0
0.0855957 -0.325753 1.21087 255 0 0
-1.75443 -0.542711 4.02685 255 0 0
-53.2021 -56.716 383.224 255 0 0
-1.38005 -1.12557 5.79484 255 0 0
176.223 33.0281 346.067 255 0 0
101.554 11.7453 257.324 255 0 0
-0.250053 0.944973 3.74133 255 0 0
193.038 13.4612 317.41 255 0 0
-0.477952 1.20577 4.75105 255 0 0
141.852 10.7759 319.729 255 0 0
-1.04534 1.94337 5.04071 255 0 0
-58.8761 18.9848 279.508 255 0 0
197.529 -25.326 399.581 255 0 0
65.6598 -79.8907 470.921 255 0 0
-2.3227 -22.3179 72.6578 255 0 0
-2.17683 -1.92627 10.0971 255 0 0
-35.5969 -19.9252 120.488 255 0 0
-25.7335 -14.8268 66.5958 255 0 0
-32.3762 -22.9498 90.8925 255 0 0
176.67 46.2065 334.956 255 0 0
-0.479133 0.363046 5.67386 255 0 0
125.417 -10.144 258.188 255 0 0
-30.8192 -17.5067 104.439 255 0 0
-31.0631 -21.7105 125.663 255 0 0
213.394 16.6061 359.136 255 0 0
-0.241671 -0.387988 2.16865 255 0 0
-138.931 -9.99006 257.775 255 0 0
21.4432 -38.5245 249.916 255 0 0
-0.677935 1.20273 3.87049 255 0 0
-124.813 -1.29996 378.898 255 0 0
-0.246667 0.948393 3.77753 255 0 0
23.3058 -10.0391 44.0932 255 0 0
207.68 0.659857 357.853 255 0 0
-0.181666 -0.46101 2.66043 255 0 0
-0.153376 0.549932 1.6362 255 0 0
-37.6414 -26.4333 152.799 255 0 0
1.1625 0.938585 3.24718 255 0 0
84.0355 42.7234 136.128 255 0 0
167.401 59.1246 336.055 255 0 0
0.605059 0.29846 2.45319 255 0 0
-35.4276 -16.9304 71.8922 255 0 0
-37.4039 -29.7624 161.044 255 0 0
111.6 -15.6013 458.979 255 0 0
0.488927 -0.333301 3.01617 255 0 0
4.21603 -2.04355 17.8377 255 0 0
-1.06063 -0.249012 5.25252 255 0 0
-29.1726 -26.5825 99.227 255 0 0
0.759198 0.964571 2.6076 255 0 0
35.0476 -23.7895 70.462 255 0 0
-24.9554 -26.5946 177.437 255 0 0
0.031314 -0.017482 1.07716 255 0 0
139.629 -13.869 321.438 255 0 0
132.803 1.37488 223.623 255 0 0
53.2466 -68.4461 330.737 255 0 0
-0.408855 1.18176 2.89133 255 0 0
173.395 47.2025 322.96 255 0 0
93.1667 6.0259 230.51 255 0 0
-0.118441 -0.826806 2.35526 255 0 0
193.365 82.7376 339.407 255 0 0
-80.506 64.1567 325.519 255 0 0
153.757 21.2029 351.456 255 0 0
0.771098 4.57591 37.6412 255 0 0
-3.06204 4.92626 11.762 255 0 0
-27.3735 87.2808 440.673 255 0 0
-0.985726 -0.542113 2.67986 255 0 0
-1.9479 4.55904 11.9334 255 0 0
44.409 -34.7871 134.492 255 0 0
-24.8229 -19.8412 60.0746 255 0 0
158.314 8.78643 320.6 255 0 0
25.9509 -31.676 142.368 255 0 0
-1.07467 2.98028 6.52414 255 0 0
-59.5806 -40.7638 226.55 255 0 0
1.18221 1.13855 3.73142 255 0 0
94.3711 47.9768 209.654 255 0 0
0.0394171 1.03289 2.49282 255 0 0
-0.740602 1.53299 8.02863 255 0 0
-35.9292 -24.5952 135.703 255 0 0
-30.2227 -22.451 79.0619 255 0 0
35.2554 -32.4515 117.875 255 0 0
-0.156126 -0.294634 1.57842 255 0 0
-139.973 143.418 328.11 255 0 0
15.7161 -16.8661 89.2876 255 0 0
46.2326 -40.4895 177.03 255 0 0
237.329 93.094 423.36 255 0 0
192.473 23.5019 348.248 255 0 0
69.3743 -70.9174 476.726 255 0 0
-0.411168 0.680407 1.75606 255 0 0
-0.916148 0.685931 2.98503 255 0 0
-45.0945 -19.5596 137.975 255 0 0
31.1679 -33.1839 173.845 255 0 0
37.3776 -27.0474 74.4722 255 0 0
23.6853 -29.1186 172.6 255 0 0
-2.94817 -35.3385 168.906 255 0 0
-1.68437 1.3331 7.79177 255 0 0
-0.0552531 -0.121453 1.13886 255 0 0
-27.1309 -23.8918 66.7179 255 0 0
1.21647 0.856467 3.10035 255 0 0
179.224 54.0405 333.607 255 0 0
267.586 2.4186 456.288 255 0 0
187.925 38.3211 365.437 255 0 0
-5.0541 4.25407 12.5782 255 0 0
2.28145 1.10857 9.15931 255 0 0
1.80299 0.863174 4.22319 255 0 0
-81.9341 27.5851 281.066 255 0 0
155.567 -28.2666 392.186 255 0 0
-8.22508 1.05715 50.6089 255 0 0
-0.0534647 -0.03608 1.15627 255 0 0
125.309 26.0414 244.061 255 0 0
207.924 -59.2519 410.791 255 0 0
-27.9688 -27.1003 106.287 255 0 0
246.176 143.315 405.87 255 0 0
-143.825 159.535 352.74 255 0 0
-35.3238 -33.1829 147.776 255 0 0
-29.7017 -13.4868 60.247 255 0 0
145.004 -10.8542 311.485 255 0 0
-0.41077 0.688395 1.75976 255 0 0
39.6344 -29.4625 84.7332 255 0 0
3.84312 -2.04515 13.4346 255 0 0
-149.473 91.2612 328.326 255 0 0
0.405656 0.251881 5.35267 255 0 0
197.172 73.5275 410.069 255 0 0
18.6583 -24.3089 118.288 255 0 0
0.800457 0.856567 2.64698 255 0 0
147.303 -90.6564 382.456 255 0 0
174.259 -22.2936 352.65 255 0 0
11.487 -7.92273 25.5022 255 0 0
-0.111621 -0.284311 1.33192 255 0 0
-35.7544 -44.1046 171.834 255 0 0
-237.593 -19.8709 395.054 255 0 0
126.882 -9.68212 461.612 255 0 0
74.8023 146.075 430.995 255 0 0
-1.5768 6.9534 21.6837 255 0 0
-1.40643 1.66105 3.59317 255 0 0
-244.852 133.416 470.405 255 0 0
129.726 -17.0094 421.937 255 0 0
-0.164681 -0.292103 1.28533 255 0 0
112.178 -5.27924 242.754 255 0 0
-21.4896 -20.7213 55.337 255 0 0
31.3427 -59.5238 391.157 255 0 0
-5.96385 3.19147 13.0618 255 0 0
176.122 38.1609 341.324 255 0 0
-55.5397 60.208 240.226 255 0 0
-24.1504 -21.2704 59.2226 255 0 0
190.519 -19.3949 386.546 255 0 0
-93.516 10.2723 456.74 255 0 0
-2.17303 -23.4875 113.149 255 0 0
-1.35984 -1.53397 3.71407 255 0 0
-0.865667 0.879227 3.23637 255 0 0
42.7561 -31.017 128.082 255 0 0
7.78534 0.132863 27.4065 255 0 0
-0.407152 57.4548 378.466 255 0 0
-138.785 -18.2068 485.84 255 0 0
-4.04048 -25.4803 108.448 255 0 0
-1.49576 7.83823 17.4799 255 0 0
-64.5638 -60.3451 214.167 255 0 0
62.1395 -41.8777 166.948 255 0 0
0.0568626 -0.183757 1.49561 255 0 0
162.261 27.4514 331.853 255 0 0
-83.0669 145.592 469.819 255 0 0
-0.199537 -0.0626168 3.1615 255 0 0
134.658 -85.6676 219.782 255 0 0
-113.358 115.966 265.452 255 0 0
77.693 -11.245 171.736 255 0 0
-0.124983 1.90538 7.79032 255 0 0
-10.8441 -58.1817 361.69 255 0 0
-34.0233 -32.1427 144.203 255 0 0
-21.0881 -27.9372 117.018 255 0 0
57.7666 -34.799 150.927 255 0 0
0.568443 -0.315245 2.82174 255 0 0
22.0665 -14.7964 39.7381 255 0 0
63.1203 -59.0294 382.564 255 0 0
-99.8047 -31.4768 386.375 255 0 0
-34.6518 -30.3634 85.6308 255 0 0
214.975 -59.3328 384.178 255 0 0
-66.572 -15.9059 121.604 255 0 0
16.2922 -11.6466 38.6501 255 0 0
1.82535 1.7764 7.63362 255 0 0
8.82485 2.14643 16.173 255 0 0
-8.49874 -8.80665 22.0869 255 0 0
138.269 -90.1807 243.122 255 0 0
-40.2371 -16.7254 116.697 255 0 0
-24.7387 -25.2326 108.879 255 0 0
16.2287 -12.0761 36.0636 255 0 0
125.136 25.3269 243.727 255 0 0
0.0286366 -0.0346506 1.28179 255 0 0
16.6255 -28.6851 183.711 255 0 0
-24.1947 -5.73588 309.399 255 0 0
195.531 46.8673 363.392 255 0 0
7.40663 -5.06701 16.8931 255 0 0
18.771 98.2433 238.272 255 0 0
5.63043 -0.789272 17.464 255 0 0
0.0643585 0.303892 4.46036 255 0 0
-4.16565 -26.2558 112.394 255 0 0
126.313 -19.3508 413.347 255 0 0
20.0405 4.08372 41.3737 255 0 0
4.89099 -21.462 56.1845 255 0 0
-17.0984 -19.9304 58.1428 255 0 0
-9.08647 3.28797 28.7916 255 0 0
8.80107 -12.4559 71.2077 255 0 0
-60.8487 31.5535 242.235 255 0 0
35.7887 -24.9876 64.6125 255 0 0
0.0779807 0.452427 1.22415 255 0 0
6.31029 -1.86341 29.1834 255 0 0
189.513 -8.9678 325.097 255 0 0
105.955 -32.0071 432.646 255 0 0
4.27851 -41.5498 217.46 255 0 0
-0.680831 1.86408 5.17514 255 0 0
118.689 -48.0719 218.126 255 0 0
-0.875415 0.370364 3.63589 255 0 0
-85.9641 -75.7884 209.356 255 0 0
66.4715 -20.0486 272.33 255 0 0
86.2546 -58.6054 232.672 255 0 0
34.8706 -22.4325 61.4713 255 0 0
-33.915 -24.135 94.0803 255 0 0
-1.04195 2.70268 5.78211 255 0 0
0.0562475 0.244557 1.06122 255 0 0
0.111485 0.262028 1.38244 255 0 0
191.577 -20.7875 420.744 255 0 0
0.123721 0.479586 1.18997 255 0 0
9.94886 -7.5715 28.2154 255 0 0
-71.5227 55.2061 215.021 255 0 0
2.85961 -41.1146 230.006 255 0 0
9.6226 -6.80267 24.7989 255 0 0
6.01913 -3.72222 28.0494 255 0 0
55.0884 -41.2888 439.638 255 0 0
-124.781 45.6878 362.855 255 0 0
-13.3186 -0.560201 43.778 255 0 0
11.5658 -8.61131 30.8327 255 0 0
-67.716 114.885 363.905 255 0 0
-196.409 64.6572 377.428 255 0 0
51.3272 -30.0498 197.939 255 0 0
-104.846 105.794 465.168 255 0 0
-27.3619 -13.391 65.3818 255 0 0
-1.18208 0.919089 5.7535 255 0 0
-0.395688 0.485955 4.46727 255 0 0
182.23 -3.62973 369.319 255 0 0
101.017 -13.3234 186.62 255 0 0
164.354 -52.3359 336.341 255 0 0
-2.26277 -2.52205 10.2844 255 0 0
0.817398 -3.97209 12.3695 255 0 0
-14.9057 -9.58092 28.3463 255 0 0
0.135172 0.213081 1.45024 255 0 0
35.6127 -24.6453 75.4022 255 0 0
191.838 18.2986 315.982 255 0 0
13.683 -8.71578 25.2721 255 0 0
181.917 -9.00063 311.762 255 0 0
46.8894 -28.9788 164.487 255 0 0
33.6174 -23.2016 70.7618 255 0 0
-0.103186 -0.374241 1.22599 255 0 0
2.9442 0.0302519 8.30146 255 0 0
-2.85606 4.25011 13.6823 255 0 0
99.6185 -33.4056 166.353 255 0 0
42.837 -54.6366 227.11 255 0 0
30.5156 -26.0363 150.572 255 0 0
105.354 -35.5687 176.491 255 0 0
219.782 49.6754 374.489 255 0 0
-0.612418 -0.784449 2.98408 255 0 0
135.319 -8.8325 276.615 255 0 0
0.284228 0.365693 2.00612 255 0 0
16.4877 -0.262959 35.263 255 0 0
-3.55145 1.55798 12.1736 255 0 0
-36.8662 -21.3039 134.273 255 0 0
0.215285 -0.0866074 1.57898 255 0 0
-0.68193 -0.0370364 2.8937 255 0 0
40.1436 -25.4893 66.4983 255 0 0
2.70019 -1.62548 5.72359 255 0 0
32.1373 -22.6999 65.8995 255 0 0
7.5147 -16.1184 98.1879 255 0 0
-0.871607 7.94615 22.509 255 0 0
-35.4519 73.382 310.693 255 0 0
-27.6517 -17.5658 50.8379 255 0 0
-0.251136 0.707009 2.91963 255 0 0
-4.23612 -30.4591 148.931 255 0 0
22.033 41.9488 161.233 255 0 0
29.3287 -46.5075 273.048 255 0 0
199.258 -7.02873 349.473 255 0 0
36.852 -25.8547 127.62 255 0 0
1.18853 -1.4172 5.02477 255 0 0
6.26428 -4.38688 16.5752 255 0 0
179.56 -74.9763 332.297 255 0 0
-26.0529 -17.9611 71.2782 255 0 0
7.12112 -11.5942 82.5475 255 0 0
-15.3742 14.0609 30.4819 255 0 0
-36.0041 -53.908 237.613 255 0 0
-10.7958 -37.9331 185.798 255 0 0
-25.9905 22.5272 63.7536 255 0 0
-0.748118 -0.800877 3.9305 255 0 0
-26.8796 -17.1488 49.6091 255 0 0
115.128 -3.42914 202.363 255 0 0
0.0715529 0.275063 1.15891 255 0 0
17.4727 41.8058 136.767 255 0 0
-4.86137 -39.8899 220.418 255 0 0
-0.00771025 -0.33317 1.07535 255 0 0
32.8065 -24.0843 75.8176 255 0 0
17.6242 -11.008 46.5269 255 0 0
-0.00182652 0.208612 3.27883 255 0 0
8.72604 -20.4622 65.9258 255 0 0
155.993 48.1937 327.204 255 0 0
52.6798 -41.5171 167.219 255 0 0
0.0611025 -0.262058 1.27835 255 0 0
15.8007 -7.48035 37.9864 255 0 0
-190.761 4.44649 368.394 255 0 0
-29.1665 -8.97954 67.8925 255 0 0
0.152514 51.373 205.986 255 0 0
-24.9347 -16.8911 68.963 255 0 0
-128.368 43.1916 475.761 255 0 0
-0.141301 0.403153 1.70306 255 0 0
-28.0465 7.52219 122.042 255 0 0
1.00721 -0.760005 4.1211 255 0 0
-1.37098 2.21594 7.55548 255 0 0
0.128122 -0.102179 1.29332 255 0 0
-135.004 -8.13017 245.41 255 0 0
73.3118 -74.2746 289.743 255 0 0
128.04 64.4166 223.95 255 0 0
188.817 42.3902 331.879 255 0 0
-55.3985 -5.69099 138.632 255 0 0
5.95845 -4.05641 13.8376 255 0 0
-54.6309 -16.2606 268.584 255 0 0
-30.3249 -23.3034 70.0051 255 0 0
-7.24428 3.01317 23.2927 255 0 0
-21.0698 18.8671 62.0597 255 0 0
0.181389 -0.129347 1.9078 255 0 0
31.8721 -22.2195 69.0816 255 0 0
-32.4254 -20.1272 59.3612 255 0 0
-112.499 51.1928 262.691 255 0 0
-27.6932 -27.219 98.6523 255 0 0
186.508 7.30294 408.931 255 0 0
-0.234899 0.641773 1.63382 255 0 0
6.4756 2.49035 12.4897 255 0 0
83.4868 -54.344 137.085 255 0 0
-42.8692 -11.1905 77.1725 255 0 0
219.692 -152.196 455.566 255 0 0
-1.57787 0.963099 6.03462 255 0 0
-1.38874 2.95481 8.2091 255 0 0
-0.955712 1.34439 3.13774 255 0 0
-25.3054 -22.0366 59.2291 255 0 0
-0.78536 -1.04601 3.2846 255 0 0
47.3551 -33.5203 88.0515 255 0 0
18.0589 -13.4538 39.9858 255 0 0
-0.316031 -0.504434 1.62901 255 0 0
0.00152141 0.757153 2.35337 255 0 0
1.30235 -1.55611 5.34453 255 0 0
-19.2206 -36.1911 223.126 255 0 0
-0.349241 -0.134858 1.9541 255 0 0
-33.3272 -26.4722 74.6443 255 0 0
-0.411754 -0.272098 1.78803 255 0 0
-138.145 123.858 455.536 255 0 0
-93.7068 9.99378 219.815 255 0 0
-0.749988 0.386579 3.13901 255 0 0
-10.4587 -41.8864 239.835 255 0 0
-134.363 50.5698 404.67 255 0 0
240.438 85.547 422.022 255 0 0
-111.817 3.02569 218.442 255 0 0
27.8464 -20.8152 60.9602 255 0 0
47.6968 88.9161 344.056 255 0 0
7.79615 -49.8719 218.069 255 0 0
2.02202 1.27596 5.32488 255 0 0
-42.5923 -21.1055 101.768 255 0 0
0.0711806 0.675346 1.64179 255 0 0
36.5346 -23.5298 64.355 255 0 0
47.6593 -12.6638 165.992 255 0 0
1.34329 -1.55434 11.6671 255 0 0
-0.660934 -1.21121 4.38304 255 0 0
19.8635 -12.9632 39.5695 255 0 0
-62.5859 24.013 203.559 255 0 0
-0.549255 -0.180861 2.44358 255 0 0
-28.8977 -27.4936 103.606 255 0 0
-5.78013 49.9783 469.032 255 0 0
-111.844 -9.93924 398.008 255 0 0
-0.348319 -0.136346 1.96128 255 0 0
0.287834 0.682665 1.99935 255 0 0
-81.6419 63.5571 241.826 255 0 0
21.1793 -13.7082 38.1296 255 0 0
-26.664 -21.9813 54.7983 255 0 0
33.4332 -25.3817 83.5715 255 0 0
0.122379 -0.571197 1.41395 255 0 0
4.42756 -2.69335 8.89861 255 0 0
25.0649 -36.089 153.138 255 0 0
-3.02098 -0.864893 6.41297 255 0 0
-140.957 -12.2918 495.093 255 0 0
-2.06227 -2.04952 5.0027 255 0 0
0.57921 0.261674 6.87205 255 0 0
38.2691 -27.9907 78.3703 255 0 0
163.046 5.1995 281.489 255 0 0
-27.3507 -16.7152 46.4336 255 0 0
-1.25467 1.50721 3.73814 255 0 0
263.153 139.319 466.756 255 0 0
-43.0533 -77.48 368.394 255 0 0
-1.00196 1.63539 3.49247 255 0 0
34.47 -22.5881 63.0667 255 0 0
-33.1981 -23.7823 96.5488 255 0 0
5.34455 -7.42875 31.081 255 0 0
126.346 7.67364 288.492 255 0 0
1.04933 -0.139821 2.80614 255 0 0
-13.1115 -46.5312 192.731 255 0 0
128.426 -43.4802 243.205 255 0 0
9.95167 -29.0708 202.737 255 0 0
1.3937 -1.26343 5.30124 255 0 0
5.7457 -6.22063 34.2751 255 0 0
34.9601 -30.6939 174.927 255 0 0
153.103 78.8611 269.643 255 0 0
-0.632564 -1.16525 2.94845 255 0 0
-0.523941 0.85944 2.72038 255 0 0
40.0733 78.3631 344.109 255 0 0
-18.4537 -24.1828 108.733 255 0 0
1.67106 -0.217069 4.91575 255 0 0
0.322267 0.0378714 1.71098 255 0 0
-220.364 78.4696 455.82 255 0 0
-2.10112 -3.31878 13.382 255 0 0
-29.6769 -21.03 104.001 255 0 0
-28.831 -18.3723 52.64 255 0 0
-27.9831 -22.7508 53.8208 255 0 0
-7.88817 -5.73764 21.3067 255 0 0
-18.3743 -14.3046 74.6023 255 0 0
-45.7959 74.0396 275.47 255 0 0
75.3177 -69.6703 316.139 255 0 0
-17.5169 -20.7683 50.3442 255 0 0
12.8566 -24.8571 145.8 255 0 0
-2.77052 1.9897 6.19166 255 0 0
7.82002 -12.3277 64.4924 255 0 0
-23.551 -26.5682 102.034 255 0 0
0.0315869 0.190155 1.16905 255 0 0
14.9042 -10.9621 35.7367 255 0 0
1.47837 -44.5702 184.185 255 0 0
9.33908 -23.0481 144.298 255 0 0
126.576 -82.4792 207.332 255 0 0
117.111 39.2608 253.798 255 0 0
32.8327 -22.4405 67.4091 255 0 0
5.72157 -5.52828 34.9675 255 0 0
16.5561 -12.1827 39.5443 255 0 0
0.17382 -0.0773284 1.76191 255 0 0
73.082 -56.6027 171.417 255 0 0
-0.727891 -0.46595 2.29768 255 0 0
-7.48213 -5.21057 20.1196 255 0 0
58.9192 -40.4893 467.649 255 0 0
147.802 -7.97624 260.251 255 0 0
7.35403 -47.0529 206.586 255 0 0
-0.590083 6.68887 19.4622 255 0 0
-61.2243 15.3088 186.512 255 0 0
-34.9667 -10.6392 80.0669 255 0 0
12.4678 -19.3868 90.1949 255 0 0
-159.291 -18.3427 318.094 255 0 0
-25.3806 -24.1943 90.7289 255 0 0
24.7308 -31.297 141.6 255 0 0
38.4938 -24.0169 65.6191 255 0 0
14.1659 24.4283 69.758 255 0 0
28.2741 -18.1722 50.0395 255 0 0
-27.44 -26.1006 150.502 255 0 0
29.865 -19.3618 49.6663 255 0 0
-58.5975 19.5001 215.961 255 0 0
-0.70332 1.44863 3.7488 255 0 0
35.0583 -24.9748 86.1041 255 0 0
-15.9813 -13.142 30.2316 255 0 0
-5.39422 -25.2699 97.2314 255 0 0
22.1951 -31.0258 132.905 255 0 0
7.0722 -34.5654 97.0254 255 0 0
34.0367 68.5181 302.404 255 0 0
0.0784502 -0.902763 4.34149 255 0 0
0.871645 -0.559896 3.1308 255 0 0
-0.987876 1.73439 10.0069 255 0 0
-28.5521 -17.7738 51.6478 255 0 0
-3.25002 -1.05115 6.78649 255 0 0
41.2524 -18.659 77.0969 255 0 0
-1.40095 1.6729 3.69514 255 0 0
9.75367 -20.7121 125.279 255 0 0
-5.40354 -28.8159 131.08 255 0 0
-143.549 74.2216 314.074 255 0 0
0.445148 0.284436 1.77326 255 0 0
25.1002 -30.4238 129.148 255 0 0
29.0313 -27.9908 132.6 255 0 0
24.8042 -30.8549 150.089 255 0 0
75.8019 168.324 418.79 255 0 0
-16.266 -19.4597 47.2246 255 0 0
-31.3306 -17.699 78.9902 255 0 0
4.50693 -32.2729 138.805 255 0 0
-11.7158 -10.469 27.9533 255 0 0
24.3087 -16.9909 53.5906 255 0 0
-0.0324567 -0.536316 1.45753 255 0 0
22.5486 -23.3764 94.022 255 0 0
-1.1958 0.0507376 3.10496 255 0 0
0.220169 -0.0893611 1.59362 255 0 0
66.434 -75.1122 477.732 255 0 0
-51.6692 -24.3138 277.039 255 0 0
-22.0798 14.391 52.9646 255 0 0
-25.957 -23.8787 70.6658 255 0 0
0.0534063 0.24186 1.05662 255 0 0
-0.452769 0.710339 1.97989 255 0 0
132.364 -45.3305 240.165 255 0 0
-0.037421 0.524432 2.67356 255 0 0
-30.2663 -12.1405 56.9106 255 0 0
-7.11578 2.07092 23.5816 255 0 0
15.7735 -38.7216 233.253 255 0 0
-0.0983158 1.76766 4.06778 255 0 0
17.0918 -12.2773 34.4973 255 0 0
-12.4657 -26.0182 150.518 255 0 0
5.01801 -4.33669 17.2143 255 0 0
197.071 69.8857 346.094 255 0 0
32.5114 -37.7706 173.154 255 0 0
35.9409 -22.6155 62.6793 255 0 0
-15.1545 -12.4599 28.6065 255 0 0
10.7057 -21.6694 118.716 255 0 0
27.5844 -0.865143 56.8414 255 0 0
32.2557 -23.5839 73.9047 255 0 0
10.574 -25.4092 94.7442 255 0 0
0.150823 1.15871 2.57344 255 0 0
-0.235413 0.393188 1.59272 255 0 0
-0.14435 -1.74747 4.1026 255 0 0
178.616 -17.5667 301.464 255 0 0
-1.383 0.53049 3.51803 255 0 0
49.297 -31.7665 86.4725 255 0 0
-20.5176 -24.0079 70.7734 255 0 0
17.3778 -13.2757 48.086 255 0 0
12.6789 -9.27287 32.3185 255 0 0
83.3024 -31.0322 149.645 255 0 0
14.9809 -11.4328 41.6748 255 0 0
27.3997 -34.6715 159.225 255 0 0
29.823 -20.2001 49.5019 255 0 0
-18.8363 26.9706 98.5352 255 0 0
6.53885 -4.75119 14.9389 255 0 0
34.5419 4.27393 119.705 255 0 0
-15.6034 -18.4644 44.6499 255 0 0
0.792158 -29.6202 118.848 255 0 0
-36.3823 -28.2572 80.9297 255 0 0
0.11148 0.940094 2.12579 255 0 0
32.1689 -24.7254 75.2135 255 0 0
-20.3717 -28.814 119.195 255 0 0
41.4714 -33.904 201.971 255 0 0
24.1243 -37.5699 191.756 255 0 0
-30.9328 -17.619 84.8183 255 0 0
32.1154 -22.6916 60.0694 255 0 0
1.98174 1.24222 5.24309 255 0 0
-72.143 33.0556 258.809 255 0 0
-30.3456 -23.0621 122.457 255 0 0
-65.9855 17.2333 213.766 255 0 0
35.2606 -36.0835 230.043 255 0 0
-0.507648 0.553575 1.97026 255 0 0
-26.1308 -13.6667 56.7358 255 0 0
49.6563 -17.4016 85.0189 255 0 0
-0.553027 -1.16803 2.85405 255 0 0
39.7005 -41.2006 163.688 255 0 0
176.758 -129.458 456.719 255 0 0
83.7019 -53.6146 140.426 255 0 0
-0.362735 -0.544423 1.81954 255 0 0
36.9241 -24.5687 63.6895 255 0 0
87.4249 -90.5676 357.528 255 0 0
31.073 -23.2415 67.8747 255 0 0
-26.3899 -15.1229 48.1316 255 0 0
0.133878 -0.298756 1.61246 255 0 0
-4.87827 -23.2847 86.7675 255 0 0
29.0911 -30.9619 193.807 255 0 0
2.8617 -1.73032 5.9992 255 0 0
-1.30015 1.82331 6.92051 255 0 0
0.161637 -1.90865 7.03644 255 0 0
-28.4876 -19.9109 73.0821 255 0 0
-26.2822 -24.525 76.2281 255 0 0
-36.2691 -11.5704 69.3019 255 0 0
50.8517 -25.0076 199.119 255 0 0
-74.5505 12.6492 271.874 255 0 0
-6.26586 -2.10667 13.6277 255 0 0
49.7283 -71.0302 350.161 255 0 0
-1.40066 1.66925 3.69377 255 0 0
35.4531 -28.742 122.16 255 0 0
-0.656073 -0.710093 2.37036 255 0 0
7.63106 -5.78248 18.8925 255 0 0
0.0372058 -1.33943 3.14477 255 0 0
0.365051 -0.431835 2.08692 255 0 0
-0.399268 0.507338 1.96023 255 0 0
49.7228 -32.7558 196.023 255 0 0
-3.2924 -1.06946 6.89503 255 0 0
-1.15742 -1.20926 3.04881 255 0 0
54.1368 -42.0622 171.102 255 0 0
-0.283142 -0.669479 1.56568 255 0 0
25.8004 -24.4442 90.3584 255 0 0
28.9936 -24.1153 76.6106 255 0 0
1.6819 -0.307738 4.23601 255 0 0
-57.0369 70.0005 257.269 255 0 0
48.0086 -15.9618 80.6852 255 0 0
-0.114712 -0.663116 1.70736 255 0 0
-56.8747 17.9159 136.213 255 0 0
-10.0694 -29.1919 127.633 255 0 0
-8.88242 7.67308 23.414 255 0 0
0.588926 0.155444 2.8891 255 0 0
15.5666 -40.2255 278.116 255 0 0
-32.1802 -45.5598 183.925 255 0 0
-2.78779 0.88962 12.2569 255 0 0
-29.2782 -25.0562 72.5169 255 0 0
0.143022 -0.664132 1.62749 255 0 0
-1.27205 -1.77355 4.5223 255 0 0
93.3857 -34.6237 167.63 255 0 0
-0.560168 0.949527 2.35545 255 0 0
127.098 12.9403 217.189 255 0 0
-197.534 122.411 394.103 255 0 0
-0.281441 1.1178 2.96246 255 0 0
20.6195 -19.3838 76.3595 255 0 0
11.9614 -8.31109 27.0256 255 0 0
64.603 -6.76542 109.679 255 0 0
-1.40346 -0.563375 3.31986 255 0 0
9.80158 -13.3578 59.6233 255 0 0
25.1956 -23.3172 90.013 255 0 0
-0.72966 1.51831 8.30143 255 0 0
-35.361 -17.8754 84.2427 255 0 0
-0.413092 0.431632 2.07041 255 0 0
198.97 -11.6782 370.473 255 0 0
-31.1177 -23.6707 129.926 255 0 0
5.27312 -39.3686 179.334 255 0 0
-36.2267 -11.8301 69.0456 255 0 0
-15.5462 -12.5626 30.2482 255 0 0
-1.67079 1.11366 16.6205 255 0 0
-0.215612 -0.0345027 2.02567 255 0 0
-28.9335 -101.752 386.693 255 0 0
24.6691 -15.6631 44.7254 255 0 0
70.1059 -27.9331 133.81 255 0 0
-1.25499 1.52043 3.75848 255 0 0
51.2034 -41.1173 154.105 255 0 0
12.7297 -20.1355 124.946 255 0 0
-26.3532 -21.4664 53.2102 255 0 0
21.2031 -19.6126 76.0812 255 0 0
-4.27987 -4.03415 11.1855 255 0 0
1.32697 2.60871 5.84063 255 0 0
-1.148 2.82415 12.1649 255 0 0
23.5304 -17.5712 51.7111 255 0 0
0.30032 -0.955903 2.22855 255 0 0
-10.8616 3.07577 37.1385 255 0 0
3.37063 -2.16305 7.71249 255 0 0
38.2034 -32.3753 137.735 255 0 0
10.4109 -21.7547 92.6908 255 0 0
16.1846 -22.7382 136.747 255 0 0
-108.603 -88.106 239.353 255 0 0
-0.325973 0.734926 2.22891 255 0 0
34.4042 -21.9663 58.3085 255 0 0
-8.55987 -29.1587 124.787 255 0 0
6.55947 -5.74251 21.9376 255 0 0
-30.7991 -40.4936 188.929 255 0 0
2.47057 -1.82563 7.0321 255 0 0
-210.572 -172.033 403.045 255 0 0
-0.150722 1.84586 5.07995 255 0 0
41.0839 -29.127 96.5978 255 0 0
-0.478766 1.81881 4.94033 255 0 0
-0.288368 -0.240501 1.566 255 0 0
-5.40191 -6.87607 15.7059 255 0 0
5.37407 -21.3267 55.4643 255 0 0
94.0812 76.3835 393.91 255 0 0
18.3821 -14.0706 40.7506 255 0 0
-22.5969 -22.2035 58.3056 255 0 0
-0.741284 1.54955 4.82548 255 0 0
15.0621 -9.31047 26.2888 255 0 0
-7.38279 -24.5379 106.334 255 0 0
-30.4061 -45.2276 230.191 255 0 0
-1.83412 2.87573 8.00531 255 0 0
11.5608 -8.53233 30.2596 255 0 0
-0.202634 -0.792875 3.01106 255 0 0
137.46 -10.4926 231.522 255 0 0
-1.91721 -70.6011 407.67 255 0 0
-0.346235 5.12883 13.8633 255 0 0
0.591434 -0.776117 3.07625 255 0 0
-6.64452 4.34895 13.7104 255 0 0
-98.5268 22.8463 342.702 255 0 0
-106.7 49.6535 350.714 255 0 0
-0.625179 -0.710783 2.75243 255 0 0
-12.5511 -41.0819 184.26 255 0 0
-0.673723 0.770883 2.42657 255 0 0
-0.523133 -0.782372 2.11045 255 0 0
-0.750882 -2.19196 8.49799 255 0 0
-2.58913 -1.48961 6.12092 255 0 0
-81.1708 -6.09927 290.563 255 0 0
-4.35425 -15.9184 37.2989 255 0 0
-146.515 93.7672 359.793 255 0 0
-1.77349 -2.46749 5.93443 255 0 0
-1.79228 -1.80921 4.9177 255 0 0
17.5647 -12.4653 38.314 255 0 0
-0.064467 0.133733 1.27161 255 0 0
26.6483 -20.4599 62.5422 255 0 0
-3.66749 12.0206 64.1979 255 0 0
-1.66671 1.78935 5.28011 255 0 0
-3.14035 -30.8856 123.184 255 0 0
-19.3945 -23.412 64.8658 255 0 0
-27.4357 -15.3838 48.1724 255 0 0
60.0551 -42.8492 113.118 255 0 0
32.0535 -37.2661 154.717 255 0 0
-0.357711 -0.297981 1.89779 255 0 0
-0.0140582 -0.30829 1.2005 255 0 0
-32.3431 -18.8443 59.2421 255 0 0
0.0153286 -0.435702 1.12246 255 0 0
31.1825 -25.0658 279.038 255 0 0
0.834174 -31.3527 127.097 255 0 0
-48.8074 64.2794 220.516 255 0 0
15.8286 -12.1086 37.7082 255 0 0
1.94276 -0.668112 4.51343 255 0 0
-1.11786 -8.1051 19.3395 255 0 0
10.3406 -7.92162 25.4526 255 0 0
-0.254453 0.126349 1.62838 255 0 0
14.6392 -9.83782 29.8647 255 0 0
-25.8382 -9.37542 53.8168 255 0 0
-1.30868 -2.99645 8.51584 255 0 0
-11.4119 -28.6414 121.466 255 0 0
31.8854 -59.0005 282.348 255 0 0
-2.25571 -3.15377 8.61785 255 0 0
32.6812 -24.0835 68.6023 255 0 0
-32.0344 24.5297 56.1563 255 0 0
6.40405 -22.1472 53.7129 255 0 0
-0.671209 0.773316 2.66179 255 0 0
-32.0321 -19.7631 99.1795 255 0 0
-11.9319 7.79778 25.1242 255 0 0
1.36023 -2.6228 10.3174 255 0 0
-19.9192 -25.9335 96.7852 255 0 0
2.67169 -0.619168 10.0287 255 0 0
0.32739 -0.933472 2.29556 255 0 0
-9.04214 -30.4515 132.347 255 0 0
-0.34132 0.680602 1.88562 255 0 0
-18.9269 4.57698 75.2906 255 0 0
49.4748 -35.282 93.3868 255 0 0
-84.5808 109.695 445.928 255 0 0
-4.88449 -20.9092 53.0006 255 0 0
4.66384 -21.4159 53.0029 255 0 0
-0.445284 0.540922 2.50921 255 0 0
-1.0097 -1.34832 4.39299 255 0 0
-4.84353 -11.0116 33.7789 255 0 0
-179.533 77.9765 340.789 255 0 0
-42.6738 -37.0812 114.025 255 0 0
-198.544 -9.11592 398.901 255 0 0
197.08 43.8898 396.248 255 0 0
-17.659 -21.6392 64.4889 255 0 0
-22.3335 -18.2759 47.6516 255 0 0
-6.72626 5.84449 16.7453 255 0 0
40.0556 -36.9496 169.299 255 0 0
0.4868 -0.0791822 2.51214 255 0 0
-0.200538 0.14823 1.93305 255 0 0
10.4344 -21.2431 83.2693 255 0 0
25.9337 -47.2382 290.879 255 0 0
-87.217 57.5318 154.565 255 0 0
-32.4658 -18.8432 89.1052 255 0 0
36.0715 20.9597 61.9337 255 0 0
33.1584 -3.63951 58.2571 255 0 0
13.7282 -19.2269 80.2586 255 0 0
-84.9295 85.4154 312.059 255 0 0
2.01681 -5.14295 20.3062 255 0 0
228.604 -155.644 372.942 255 0 0
0.590402 -0.800288 2.57665 255 0 0
102.276 -79.5631 321.581 255 0 0
284.215 -97.5479 496.585 255 0 0
27.9743 14.0498 50.1282 255 0 0
9.75554 -19.8725 78.1464 255 0 0
-1.19181 -1.05835 3.08644 255 0 0
-0.710401 2.2631 6.69441 255 0 0
0.0587381 0.920775 3.93275 255 0 0
12.9224 -9.14845 28.5222 255 0 0
-0.349178 -0.649669 1.65409 255 0 0
-138.411 91.3095 245.919 255 0 0
11.7788 -27.7725 127.533 255 0 0
9.13918 3.88643 16.3887 255 0 0
212.654 80.0473 433.184 255 0 0
-1.71321 -1.19644 4.42494 255 0 0
-224.074 -35.0553 418.347 255 0 0
0.283456 -0.112252 1.65911 255 0 0
-0.416339 0.501221 1.79352 255 0 0
-21.9356 -23.1902 74.6631 255 0 0
-17.1735 -22.0768 55.8495 255 0 0
-28.957 -19.1702 90.1202 255 0 0
1.11291 -1.85913 7.32955 255 0 0
2.44767 59.8842 241.751 255 0 0
-1.02536 -0.756811 3.10337 255 0 0
-7.52372 -10.2841 41.7403 255 0 0
-27.7494 -19.0054 72.9079 255 0 0
10.8056 -7.36375 19.5603 255 0 0
-3.42906 -36.914 145.709 255 0 0
-18.2439 -26.6764 136.263 255 0 0
-23.5921 -19.4333 48.3398 255 0 0
-4.81072 -3.57054 15.2028 255 0 0
76.4762 -70.5233 250.495 255 0 0
-20.4602 -17.6336 45.2601 255 0 0
6.93161 -5.87317 20.7598 255 0 0
-0.360279 4.11675 9.22219 255 0 0
-18.3647 -20.3381 69.8649 255 0 0
-0.239044 -0.969413 2.3804 255 0 0
-0.60652 1.09791 4.31236 255 0 0
5.68994 10.7058 92.6764 255 0 0
-42.244 -13.7112 80.7073 255 0 0
1.36 -2.63 10.3162 255 0 0
84.3452 35.9673 184.244 255 0 0
-5.62957 1.53076 20.6624 255 0 0
6.40657 -4.13968 17.5969 255 0 0
-2.45145 -22.5742 89.7784 255 0 0
-34.0979 -19.7474 251.278 255 0 0
-19.5825 -57.0522 224.295 255 0 0
25.4852 -20.2598 60.8465 255 0 0
-136.001 99.5186 276.559 255 0 0
-0.537924 -0.119506 4.00965 255 0 0
31.0346 -24.4733 72.4485 255 0 0
59.3505 -45.7162 146.319 255 0 0
1.35316 -1.27448 5.47471 255 0 0
16.167 -12.6683 52.4119 255 0 0
41.1196 -27.7083 75.685 255 0 0
5.96611 -23.0794 96.6038 255 0 0
-2.61928 -0.488912 12.8804 255 0 0
16.9236 -12.3791 39.7706 255 0 0
0.0687244 -0.547805 1.27621 255 0 0
-25.0692 -23.1807 72.5295 255 0 0
-2.59157 -26.0238 102.575 255 0 0
-16.2686 -26.3265 94.2444 255 0 0
5.9925 -23.5604 79.0606 255 0 0
0.192572 -0.612004 1.40269 255 0 0
3.07013 -2.34434 8.09708 255 0 0
-10.2922 -9.19809 24.1994 255 0 0
-17.4812 -26.5828 94.0384 255 0 0
0.380068 -0.335575 1.67408 255 0 0
-45.8156 10.2707 182.55 255 0 0
-1.50477 -2.03446 4.853 255 0 0
18.526 -31.2238 144.928 255 0 0
2.39116 -2.53758 12.1491 255 0 0
-90.8551 -33.278 453.232 255 0 0
-30.2328 -27.2226 80.349 255 0 0
0.872194 -1.57496 3.82119 255 0 0
-3.26756 -3.13237 10.9644 255 0 0
35.7477 -26.2619 88.2476 255 0 0
-78.3108 -30.2139 399.182 255 0 0
-0.468774 -0.534021 1.97507 255 0 0
-0.485572 0.827739 2.07389 255 0 0
-0.581526 -0.946502 2.55439 255 0 0
0.163579 -0.690309 1.67344 255 0 0
-10.3158 6.76712 23.7078 255 0 0
-70.1358 -34.3284 416.277 255 0 0
105.436 -47.3652 213.861 255 0 0
-15.6553 -34.9546 151.731 255 0 0
-19.4635 -25.0687 72.4494 255 0 0
-12.6229 8.24838 26.6561 255 0 0
5.64575 -3.46731 11.0548 255 0 0
-6.03848 -45.6395 217.861 255 0 0
6.55914 -5.72724 20.8833 255 0 0
14.5682 -12.9209 55.3983 255 0 0
-0.28873 0.468647 1.75624 255 0 0
0.579146 -0.968632 2.31253 255 0 0
-7.38126 -17.0751 67.223 255 0 0
66.9598 39.3295 114.1 255 0 0
-0.26396 -1.61855 10.8686 255 0 0
-1.71702 1.77446 5.25737 255 0 0
20.8053 -27.5704 129.547 255 0 0
-0.161691 1.54624 9.37269 255 0 0
-81.5213 47.9018 166.621 255 0 0
-0.196786 -0.216717 1.63772 255 0 0
218.493 106.009 376.291 255 0 0
-6.47279 -2.16522 14.1254 255 0 0
-0.104268 -1.69282 4.00928 255 0 0
-17.2639 -26.937 95.15 255 0 0
0.238015 -0.657622 1.69918 255 0 0
-0.377781 0.864085 2.04574 255 0 0
-27.2719 -16.0592 47.9853 255 0 0
-0.0324849 -0.473841 1.21977 255 0 0
-0.434444 -0.594555 2.30554 255 0 0
-13.6412 -32.3406 118.032 255 0 0
-0.0849597 -0.343472 1.27097 255 0 0
-3.46012 -5.92748 16.0603 255 0 0
1.1587 -0.688032 3.83791 255 0 0
-0.453142 0.265758 3.71316 255 0 0
0.202601 -0.634565 1.99617 255 0 0
-22.7849 -19.6184 50.5578 255 0 0
-2.21833 -2.01144 5.85698 255 0 0
-6.16558 -28.842 93.5442 255 0 0
33.7881 -22.6543 66.795 255 0 0
-17.2401 -20.7391 57.43 255 0 0
-8.88315 -21.1664 88.8163 255 0 0
16.459 -33.6138 143.604 255 0 0
126.099 19.229 292.708 255 0 0
-25.6274 -28.0342 95.9203 255 0 0
-1.17647 1.39819 3.46741 255 0 0
19.4773 -13.3906 34.4319 255 0 0
-24.6115 -33.7619 142.855 255 0 0
154.179 22.856 288.159 255 0 0
45.0892 -28.808 76.1071 255 0 0
-0.352977 0.253767 2.28546 255 0 0
43.6118 -50.1749 206.046 255 0 0
-5.98415 -27.9526 90.4948 255 0 0
-8.663 -26.047 125.152 255 0 0
0.0759852 -0.54653 1.27399 255 0 0
-1.61067 1.55002 4.74012 255 0 0
197.448 -88.1045 399.438 255 0 0
-0.31367 -0.5136 1.79727 255 0 0
1.18371 -0.212701 3.30427 255 0 0
34.407 -22.1816 61.9408 255 0 0
1.03391 3.08953 14.1975 255 0 0
-0.733988 -0.696178 2.57493 255 0 0
-0.682698 0.830817 2.19078 255 0 0
-16.2843 -20.9215 60.2388 255 0 0
-1.28342 -1.47051 3.98028 255 0 0
3.3002 -2.6497 12.7253 255 0 0
0.0154382 -0.327805 1.16323 255 0 0
90.2779 206.493 460.055 255 0 0
-9.70774 -18.0946 68.9597 255 0 0
-0.182585 -0.139538 1.76975 255 0 0
-12.0395 -30.1283 128.516 255 0 0
33.369 -31.284 122.239 255 0 0
4.17829 -0.122487 9.55807 255 0 0
5.21234 11.7042 38.8735 255 0 0
224.395 -23.0838 435.931 255 0 0
-1.72911 -4.47559 15.5191 255 0 0
-13.1954 -29.0209 124.666 255 0 0
5.03894 -22.8295 56.7799 255 0 0
-1.99331 5.17415 27.5837 255 0 0
-23.0354 4.15287 147.51 255 0 0
14.3438 -29.8475 125.798 255 0 0
-30.7718 -109.822 270.73 255 0 0
-6.41141 -20.8053 50.8954 255 0 0
-0.394608 0.895668 2.12952 255 0 0
48.8162 -21.7828 88.8217 255 0 0
21.6642 -42.9772 211.722 255 0 0
-46.123 10.5168 159.311 255 0 0
-23.5178 -19.2973 47.5474 255 0 0
0.461215 -2.6996 8.13827 255 0 0
54.3801 -60.2721 319.202 255 0 0
-0.213289 0.550032 1.60294 255 0 0
-5.64971 -3.4199 10.4238 255 0 0
8.18856 -6.21669 20.1721 255 0 0
8.26086 -14.343 64.9072 255 0 0
38.3429 -31.9632 100.813 255 0 0
11.218 -12.421 30.0112 255 0 0
3.26868 -15.3549 37.0181 255 0 0
20.4007 -40.3252 220.52 255 0 0
17.0079 -22.5872 106.565 255 0 0
9.32689 -7.30865 24.4815 255 0 0
-0.440562 -0.828581 2.22035 255 0 0
-2.54731 -2.40483 5.82741 255 0 0
24.0913 -18.5511 57.0553 255 0 0
34.2796 -23.0839 63.2763 255 0 0
-1.82588 -1.64424 4.48196 255 0 0
23.2685 -28.0961 114.583 255 0 0
-2.93373 1.88475 6.1301 255 0 0
13.2515 -10.0188 32.9095 255 0 0
52.1275 -17.8427 88.7279 255 0 0
-1.4885 1.51833 3.68847 255 0 0
5.2412 -3.82136 12.5176 255 0 0
-22.8041 -22.2481 63.8582 255 0 0
6.12463 -8.55943 53.0893 255 0 0
3.1349 4.29246 34.8909 255 0 0
-0.0653124 0.384062 1.20072 255 0 0
-0.356934 -0.764167 2.05218 255 0 0
-0.313125 0.625132 2.67489 255 0 0
-26.9539 -35.4073 132.028 255 0 0
-3.57152 5.53428 14.2455 255 0 0
-9.70152 -21.3189 79.8231 255 0 0
-2.21111 -2.36454 5.68677 255 0 0
9.57526 -7.33037 23.6722 255 0 0
-15.2166 -22.58 74.1474 255 0 0
0.83077 0.250402 2.31706 255 0 0
0.212174 -0.614384 1.92186 255 0 0
0.156792 -0.202332 1.34425 255 0 0
0.205485 -1.20212 2.93833 255 0 0
8.41916 -17.9484 75.9244 255 0 0
-0.445836 0.683004 2.32566 255 0 0
0.302493 -0.806067 2.14071 255 0 0
0.230729 -0.555984 1.69594 255 0 0
-6.12862 -3.6958 11.2629 255 0 0
-3.53928 7.67376 22.725 255 0 0
37.7082 -27.0934 72.9798 255 0 0
-34.7629 -25.6778 60.6626 255 0 0
8.88611 -32.4274 79.2521 255 0 0
-17.5168 -24.2712 119.592 255 0 0
0.691402 -1.00126 3.3309 255 0 0
-1.92254 -5.07581 13.5903 255 0 0
-9.70047 -20.9441 56.0986 255 0 0
-0.0126571 -0.307261 1.20337 255 0 0
-9.48959 -26.3614 120.343 255 0 0
-0.0318757 -0.66048 2.1666 255 0 0
-12.314 -18.2348 72.3198 255 0 0
0.12905 -0.369736 1.20384 255 0 0
-7.01249 4.8499 14.2172 255 0 0
15.0312 -11.2025 35.6881 255 0 0
-26.8964 -18.855 47.8349 255 0 0
-32.2696 -17.7722 75.6685 255 0 0
-7.44063 -27.1876 93.3601 255 0 0
0.130202 -0.879338 2.5038 255 0 0
-11.5991 -9.98181 23.6992 255 0 0
7.79251 -13.5821 61.4765 255 0 0
-134.863 62.0175 240.662 255 0 0
0.0557413 -0.459302 1.10848 255 0 0
-29.4692 -21.83 63.0182 255 0 0
22.9529 -26.3824 78.8751 255 0 0
-0.496509 -0.67886 2.52794 255 0 0
0.246681 -1.2406 2.83032 255 0 0
0.0145599 -0.291483 1.14071 255 0 0
-0.467423 0.56256 1.78284 255 0 0
-69.8682 -26.4252 355.815 255 0 0
0.35391 -0.68195 1.81306 255 0 0
-88.9604 19.9551 316.823 255 0 0
-77.9966 -64.2901 151.912 255 0 0
33.0959 -23.7641 64.1931 255 0 0
179.175 -81.0729 362.584 255 0 0
-10.9572 -21.7695 61.6857 255 0 0
-2.50283 -3.12182 9.32559 255 0 0
-25.8085 -31.1265 131.209 255 0 0
-14.1555 -27.0701 70.3568 255 0 0
-2.01947 -2.66154 8.29729 255 0 0
-25.063 -36.5021 104.697 255 0 0
9.43161 -26.2315 109.396 255 0 0
21.7482 -17.2963 52.1296 255 0 0
4.37888 -20.8008 50.1556 255 0 0
-27.805 -15.307 65.0012 255 0 0
-0.770468 0.611541 4.75202 255 0 0
3.22884 -3.34409 11.9264 255 0 0
-0.325686 -0.517761 1.81173 255 0 0
0.889144 1.2845 3.3322 255 0 0
38.7496 -27.0542 86.8661 255 0 0
-0.27987 0.553073 1.63098 255 0 0
62.6124 -70.3485 448.054 255 0 0
0.249191 -6.1488 25.9299 255 0 0
0.0143035 -0.459275 1.57761 255 0 0
-1.0787 1.32932 4.976 255 0 0
-7.1797 3.67013 13.8159 255 0 0
-46.1167 28.8576 112.166 255 0 0
-5.89411 1.61741 21.7492 255 0 0
247.281 -61.9942 410.728 255 0 0
1.11255 -4.9197 16.3868 255 0 0
38.2718 -24.3017 68.7791 255 0 0
-0.971584 1.03655 3.6217 255 0 0
-0.511313 -2.14667 5.30837 255 0 0
6.49957 -7.28047 25.9885 255 0 0
40.5425 -27.3589 70.462 255 0 0
-16.5416 -32.1043 82.7414 255 0 0
-1.42035 -1.56521 3.70918 255 0 0
-14.8325 -22.4482 81.3017 255 0 0
0.378953 -20.4891 68.4905 255 0 0
-38.3906 -53.6897 232.799 255 0 0
-7.43398 4.53428 14.1201 255 0 0
-46.35 -26.9738 127.929 255 0 0
-27.2879 -32.0013 94.8304 255 0 0
-8.16551 7.38053 20.8942 255 0 0
-5.11985 -2.86865 17.993 255 0 0
3.64413 -2.66687 7.55394 255 0 0
-16.2931 -31.312 127.563 255 0 0
0.422177 -0.858573 2.45978 255 0 0
251.854 123.802 413.067 255 0 0
3.1485 -3.24908 11.6762 255 0 0
-34.29 -45.7344 218.6 255 0 0
0.391259 -1.34962 4.33546 255 0 0
-1.5115 -0.321833 3.8282 255 0 0
-1.35714 -0.730509 3.73228 255 0 0
-3.51711 -3.78974 9.20452 255 0 0
63.6978 33.3508 104.322 255 0 0
-8.77665 -7.63088 17.6179 255 0 0
-0.210714 -1.71362 6.27721 255 0 0
7.20149 -4.53075 13.8038 255 0 0
-34.3288 -29.2068 83.9848 255 0 0
41.148 -28.3839 70.5308 255 0 0
-0.332573 0.204566 2.21984 255 0 0
10.2809 -7.61223 23.3176 255 0 0
-9.91996 -14.4247 57.5393 255 0 0
-163.892 42.9873 375.992 255 0 0
0.181381 0.194558 1.55131 255 0 0
97.0826 152.12 470.298 255 0 0
116.594 -46.4495 221.787 255 0 0
-0.270512 -0.455716 1.63195 255 0 0
-1.78358 1.35445 5.34293 255 0 0
0.573911 -1.01079 2.92141 255 0 0
-1.59796 -17.8748 42.1865 255 0 0
0.592347 -0.922057 2.18073 255 0 0
46.9845 -33.7885 90.6518 255 0 0
0.285034 -0.574754 1.64673 255 0 0
15.8837 -4.16722 51.6676 255 0 0
5.60953 -6.37393 22.7305 255 0 0
-0.189523 -0.150903 2.77365 255 0 0
-15.6761 -24.4212 86.5095 255 0 0
-3.3494 -4.91351 16.1023 255 0 0
-45.7209 -29.4463 100.308 255 0 0
0.0396001 -0.629807 1.88741 255 0 0
-24.8157 -40.1473 102.366 255 0 0
-0.868002 1.29508 2.88693 255 0 0
-0.223444 -0.631246 1.53329 255 0 0
-0.532695 0.518127 1.98814 255 0 0
0.47335 1.22532 10.5368 255 0 0
-15.0557 -21.7666 62.7682 255 0 0
19.2664 -26.4141 71.472 255 0 0
-24.3653 -21.1677 51.2044 255 0 0
51.9772 -43.3219 136.109 255 0 0
0.17974 -0.594014 1.68776 255 0 0
24.4852 -21.7883 93.2646 255 0 0
9.1355 -36.1573 174.066 255 0 0
92.2179 44.4762 159.414 255 0 0
0.948489 -0.684537 3.15495 255 0 0
-28.2233 9.17725 80.3469 255 0 0
13.8126 -9.46278 24.7171 255 0 0
