ply
format ascii 1.0
element vertex 1469
property float x
property float y
property float z
property uchar red
property uchar green
property uchar blue
end_header
-112.825 113.907 317.485 255 0 0
-16.3587 -26.9083 90.2077 255 0 0
78.5512 26.9841 202.48 255 0 0
79.1966 141.363 377.571 255 0 0
-128.892 19.2471 296.041 255 0 0
84.0842 57.2491 152.177 255 0 0
74.6161 45.725 197.324 255 0 0
72.3104 71.9997 270.044 255 0 0
50.3943 20.5375 280.721 255 0 0
76.2898 82.5099 231.6 255 0 0
-159.286 87.8491 415.679 255 0 0
60.2133 115.267 337.821 255 0 0
72.5838 196.843 465.594 255 0 0
48.1261 161.452 418.403 255 0 0
84.4821 148.008 409.885 255 0 0
52.3786 140.39 446.511 255 0 0
52.8272 75.6838 484.932 255 0 0
32.2439 -25.3146 165.245 255 0 0
55.4708 11.8371 103.589 255 0 0
47.5729 49.4828 397.754 255 0 0
-46.8178 -20.0514 87.3647 255 0 0
49.462 11.4799 281.39 255 0 0
57.3059 143.947 367.497 255 0 0
-14.0492 -0.168885 58.2015 255 0 0
-18.4965 -25.3769 84.7404 255 0 0
25.0587 16.7928 46.1084 255 0 0
33.1038 -42.8648 272.576 255 0 0
77.8732 63.0729 190.517 255 0 0
-134.745 57.8776 322.393 255 0 0
68.1318 56.5183 265.346 255 0 0
22.7412 -3.53697 158.73 255 0 0
48.0927 43.8626 378.903 255 0 0
81.9555 60.2407 164.998 255 0 0
-128.016 9.19488 296.147 255 0 0
87.4898 -11.1805 228.009 255 0 0
48.4091 26.6843 375.34 255 0 0
-65.2599 -7.75972 167.63 255 0 0
64.5949 22.127 166.414 255 0 0
-0.49438 -0.297621 2.2908 255 0 0
-137.123 83.1983 281.887 255 0 0
29.4805 15.4865 165.095 255 0 0
-132.385 136.245 365.41 255 0 0
-123.016 74.6037 252.583 255 0 0
-83.094 51.6366 243.1 255 0 0
105.002 150.16 482.873 255 0 0
41.3381 -18.8692 75.8414 255 0 0
-119.228 78.1536 216.909 255 0 0
63.474 167.565 406.884 255 0 0
-93.6618 10.6426 164.51 255 0 0
-47.912 -20.1224 90.7759 255 0 0
76.1334 38.2366 213.579 255 0 0
36.3099 93.7405 470.841 255 0 0
78.7336 53.2801 128.381 255 0 0
23.9553 15.9594 39.7363 255 0 0
43.7496 64.3368 475.262 255 0 0
-17.345 -27.8007 98.5699 255 0 0
81.2309 67.5578 291.2 255 0 0
37.6069 -20.277 96.616 255 0 0
14.1013 9.25458 23.7901 255 0 0
-154.434 70.6862 396.879 255 0 0
-142.667 39.5073 363.618 255 0 0
-88.0838 -54.4523 333.273 255 0 0
74.0343 39.4768 175.517 255 0 0
51.1649 79.1242 223.16 255 0 0
-94.8583 10.8021 166.416 255 0 0
-95.8441 -42.7353 219.034 255 0 0
71.2227 76.9387 322.773 255 0 0
73.5074 62.4126 264.952 255 0 0
65.8333 -23.3401 189.936 255 0 0
72.1907 35.6957 203.905 255 0 0
66.7538 13.7112 176.489 255 0 0
44.8769 53.5809 456.756 255 0 0
-156.546 97.3762 423.886 255 0 0
-47.3086 -19.8011 89.6182 255 0 0
-140.645 -15.3598 445.545 255 0 0
73.3948 116.464 287.234 255 0 0
61.4455 115.05 433.788 255 0 0
-15.4023 -24.427 74.3439 255 0 0
83.465 59.2461 226.935 255 0 0
-64.2527 -33.1381 157.335 255 0 0
44.8674 -25.9335 132.816 255 0 0
72.4529 154.021 389.871 255 0 0
1.06038 1.70736 10.6235 255 0 0
60.3467 19.5957 319.1 255 0 0
-46.8507 -16.7092 90.353 255 0 0
42.323 11.2712 285.976 255 0 0
-138.998 -61.4346 317 255 0 0
-126.205 103.914 280.2 255 0 0
69.9441 55.0734 334.648 255 0 0
41.2439 49.603 420.267 255 0 0
-130.34 84.323 300.137 255 0 0
66.7033 56.7652 240.626 255 0 0
54.5886 10.9012 129.301 255 0 0
65.9819 113.872 314.781 255 0 0
-126.779 131.14 350.882 255 0 0
14.4166 -54.8889 309.05 255 0 0
56.338 33.5943 299.304 255 0 0
86.1448 95.8273 357.111 255 0 0
66.7349 100.166 348.862 255 0 0
45.7123 108.018 472.386 255 0 0
-138.522 88.1053 358.488 255 0 0
72.6696 50.1317 202.974 255 0 0
-153.709 67.6965 372.549 255 0 0
-88.9914 -49.4811 287.252 255 0 0
79.3865 109.274 326.443 255 0 0
77.6307 46.947 216.268 255 0 0
60.1198 20.1641 198.396 255 0 0
44.2852 -25.5334 131.978 255 0 0
103.758 73.7586 281.429 255 0 0
65.0787 23.0536 242.924 255 0 0
79.806 -10.1784 204.562 255 0 0
-149.795 28.6548 363.077 255 0 0
0.0436882 -0.0680227 1.73765 255 0 0
41.3978 79.2415 448.062 255 0 0
27.4664 -36.9926 161.891 255 0 0
-134.924 33.7127 327.73 255 0 0
60.1235 19.4715 243.874 255 0 0
14.6882 9.77166 25.3378 255 0 0
61.3146 136.491 343.895 255 0 0
60.9254 -40.1923 318.937 255 0 0
27.5155 -25.6297 158.562 255 0 0
-57.9881 -19.6037 159.763 255 0 0
47.7616 32.0927 398.148 255 0 0
-149.493 102.952 254.988 255 0 0
-43.6079 -19.6983 123.807 255 0 0
-138.318 37.9838 423.137 255 0 0
50.4659 52.9298 421.241 255 0 0
-118.693 29.7041 254.316 255 0 0
44.5889 58.1573 413.416 255 0 0
75.2482 40.0486 277.648 255 0 0
-51.9379 12.8463 125.256 255 0 0
48.151 68.559 382.447 255 0 0
80.0621 59.7435 240.111 255 0 0
-65.8739 -34.0957 161.867 255 0 0
81.3772 99.05 279.146 255 0 0
83.994 130.202 292.548 255 0 0
30.2818 -28.7802 135.994 255 0 0
61.5949 22.5547 149.922 255 0 0
16.787 -62.8477 350.961 255 0 0
-110.124 28.0014 329.726 255 0 0
77.259 54.8274 232.687 255 0 0
46.6093 10.6654 309.915 255 0 0
-127.892 87.9424 217.995 255 0 0
10.6014 12.5805 314.602 255 0 0
93.7799 66.4053 282.061 255 0 0
71.247 54.6436 295.572 255 0 0
70.7373 80.9597 181.384 255 0 0
2.36824 -2.25994 11.3959 255 0 0
73.4442 79.7625 188.212 255 0 0
69.1493 22.9629 196.691 255 0 0
-53.679 -14.1608 94.9773 255 0 0
91.6441 -3.91477 160.628 255 0 0
-0.641136 -0.510231 3.84368 255 0 0
36.4432 -27.7089 115.706 255 0 0
1.86305 0.335561 8.65946 255 0 0
37.3031 31.396 382.647 255 0 0
84.2935 -7.13465 217.785 255 0 0
76.2184 -49.6607 398.933 255 0 0
-108.403 23.5467 204.895 255 0 0
80.4096 55.9326 243.218 255 0 0
64.7927 20.9349 163.19 255 0 0
63.4341 170.275 388.097 255 0 0
-52.7109 -24.0817 113.408 255 0 0
31.7737 3.61923 462.027 255 0 0
39.2578 -29.1621 163.164 255 0 0
-39.3923 15.8018 70.6618 255 0 0
138.682 104.671 395.185 255 0 0
71.1436 15.0899 164.933 255 0 0
75.8994 93.9933 322.42 255 0 0
76.4814 52.4868 127.75 255 0 0
76.2412 86.4636 195.65 255 0 0
35.3778 -33.1266 130.209 255 0 0
-106.931 28.5959 200.856 255 0 0
74.5355 25.4329 227.907 255 0 0
-47.8659 -18.2677 89.1562 255 0 0
37.303 -21.6664 96.8557 255 0 0
-46.6922 -14.2887 91.7193 255 0 0
0.62721 -54.625 331.596 255 0 0
-54.5137 -20.3898 143.485 255 0 0
92.4562 106.595 236.607 255 0 0
-152.982 70.0304 393.133 255 0 0
81.4675 140.682 338.683 255 0 0
59.584 20.9968 303.439 255 0 0
77.393 82.9272 189.3 255 0 0
81.6083 56.0054 140.67 255 0 0
49.2816 38.7197 363.756 255 0 0
71.0555 28.6255 276.455 255 0 0
60.6254 17.9849 113.865 255 0 0
45.1372 34.8306 129.77 255 0 0
39.3708 -29.507 129.671 255 0 0
61.7845 28.0879 144.572 255 0 0
-78.805 -23.4083 207.836 255 0 0
76.1241 34.4641 175.087 255 0 0
-27.6445 5.44895 125.164 255 0 0
0.10404 0.04935 1.81884 255 0 0
-53.8546 -20.0827 141.425 255 0 0
-117.87 49.2276 270.345 255 0 0
78.3956 92.8754 250.266 255 0 0
-0.259997 0.398255 2.0098 255 0 0
-94.6298 -53.6051 368.198 255 0 0
51.2597 67.2387 394.203 255 0 0
-97.7493 13.6567 166.13 255 0 0
66.5449 23.4415 338.197 255 0 0
100.91 -16.5513 260.938 255 0 0
35.7954 -64.8836 386.039 255 0 0
82.9545 97.5964 253.889 255 0 0
-53.2865 -26.94 100.587 255 0 0
42.9254 53.8361 497.646 255 0 0
40.0137 14.8838 69.8999 255 0 0
134.98 114.711 346.563 255 0 0
92.2023 -5.61432 185.291 255 0 0
-0.339392 0.48145 2.46126 255 0 0
80.8914 69.1265 208.304 255 0 0
79.5271 -13.5268 205.972 255 0 0
-20.0712 7.3848 43.9491 255 0 0
92.6111 -5.82781 185.874 255 0 0
71.6229 16.346 188.296 255 0 0
74.9442 51.6956 125.046 255 0 0
0.0801944 -0.245203 2.4226 255 0 0
63.6182 -16.7074 158.673 255 0 0
32.8788 -19.776 91.1465 255 0 0
0.714603 0.028606 8.07774 255 0 0
35.5508 -24.0789 100.759 255 0 0
81.1836 5.76109 183.618 255 0 0
-0.318462 0.203964 2.02113 255 0 0
67.3558 23.4739 204.955 255 0 0
-108.098 45.1245 249.992 255 0 0
78.9897 28.7646 165.493 255 0 0
-127.895 82.4841 306.997 255 0 0
58.1467 156.392 394.484 255 0 0
100.242 78.7264 191.32 255 0 0
-111.747 12.7015 249.441 255 0 0
24.0897 -43.0891 261.879 255 0 0
-47.7306 -16.4955 91.4143 255 0 0
-0.966055 0.458532 4.35482 255 0 0
62.3379 75.1537 478.512 255 0 0
71.3652 79.8787 174.837 255 0 0
1.82414 0.364938 6.83602 255 0 0
77.2423 53.4264 133.44 255 0 0
42.4576 150.32 322.234 255 0 0
77.5312 59.7251 246.195 255 0 0
37.0001 -29.7476 100.501 255 0 0
61.9473 14.1284 153.946 255 0 0
74.9831 29.989 160.645 255 0 0
-12.9027 3.53488 236.77 255 0 0
6.09472 -59.063 323.12 255 0 0
-56.38 -25.5136 139.822 255 0 0
83.7995 71.7529 215.699 255 0 0
31.1164 39.0238 410.763 255 0 0
76.0184 31.4763 162.592 255 0 0
-51.7198 -23.0952 147.158 255 0 0
0.663712 0.0139563 3.8815 255 0 0
-147.949 64.847 397.335 255 0 0
61.3068 169.74 416.82 255 0 0
41.2954 -26.1723 74.6188 255 0 0
-141.269 18.1215 341.041 255 0 0
43.7386 -17.949 72.5244 255 0 0
81.4256 93.46 235.078 255 0 0
-22.1864 -28.8408 100.921 255 0 0
91.1929 85.3739 251.994 255 0 0
77.2105 9.26802 180.325 255 0 0
91.2867 86.4722 255.085 255 0 0
86.2738 82.3984 243.116 255 0 0
43.8677 -27.7669 79.1835 255 0 0
74.2467 33.3241 173.452 255 0 0
5.67754 -58.4128 318.224 255 0 0
57.2615 121.864 350.941 255 0 0
0.0302761 0.0706539 1.3658 255 0 0
-56.9911 -28.9151 106.961 255 0 0
39.5914 -24.6699 75.9402 255 0 0
-152.699 16.3791 384.525 255 0 0
15.8934 -42.4931 228.458 255 0 0
-3.43848 -0.975899 14.8688 255 0 0
64.9574 90.1105 341.214 255 0 0
16.8986 -34.2547 247.584 255 0 0
34.8348 -0.378036 449.396 255 0 0
51.0591 21.4181 109.626 255 0 0
-109.424 -16.6613 195.677 255 0 0
55.3565 85.5114 476.58 255 0 0
-48.7886 -15.4349 89.4103 255 0 0
59.2114 13.6424 147.235 255 0 0
-5.23693 1.36453 14.2469 255 0 0
74.4965 8.41558 173.644 255 0 0
0.841601 0.715572 2.47778 255 0 0
29.6501 -25.762 123.546 255 0 0
39.9197 -22.1401 78.6924 255 0 0
11.1042 -49.9111 269.371 255 0 0
34.4692 -30.642 106.132 255 0 0
68.9859 20.8464 175.835 255 0 0
-145.808 59.3142 364.086 255 0 0
-128.867 103.489 233.978 255 0 0
56.2984 22.5628 240.633 255 0 0
18.0267 0.163907 370.913 255 0 0
4.25264 5.99497 13.0131 255 0 0
-0.666156 0.152512 2.98764 255 0 0
66.2335 63.2011 275.291 255 0 0
48.3967 51.175 376.765 255 0 0
87.1916 -7.177 200.225 255 0 0
39.7039 -26.5715 81.3151 255 0 0
-73.6274 16.1135 337.977 255 0 0
-138.689 110.291 251.939 255 0 0
-120.278 69.7218 214.776 255 0 0
-106.877 -74.4871 442.081 255 0 0
64.9185 40.0038 159.165 255 0 0
41.7798 -20.8978 103.549 255 0 0
-124.309 79.7099 263.972 255 0 0
66.985 -21.9401 326.809 255 0 0
-124.036 70.9205 298.884 255 0 0
68.0834 40.0809 192.867 255 0 0
18.5023 128.302 380.245 255 0 0
68.3748 -23.1583 331.129 255 0 0
59.0804 34.2721 149.256 255 0 0
-140.243 104.981 326.664 255 0 0
75.4677 -5.90465 173.487 255 0 0
86.4649 79.0037 169.668 255 0 0
18.0316 -35.803 260.698 255 0 0
-44.062 -35.8972 274.013 255 0 0
6.73009 -55.2845 300.144 255 0 0
-141.386 -23.2183 432.68 255 0 0
58.2973 139.315 446.04 255 0 0
95.6946 68.7939 237.453 255 0 0
32.8911 -29.2719 101.356 255 0 0
46.079 12.6897 83.3244 255 0 0
49.6646 13.7424 90.1807 255 0 0
35.8197 -19.7339 98.8928 255 0 0
12.5809 7.71437 29.5286 255 0 0
17.3158 -41.1623 244.345 255 0 0
-1.5259 -0.13508 6.48746 255 0 0
-164.687 29.3955 388.291 255 0 0
-115.115 1.37992 298.332 255 0 0
37.7191 -24.2675 108.291 255 0 0
-111.075 16.8902 224.877 255 0 0
71.7782 45.5076 197.205 255 0 0
17.9372 -38.6811 279.029 255 0 0
84.6955 43.916 181.651 255 0 0
35.0571 -23.2956 182.391 255 0 0
62.554 58.8959 244.862 255 0 0
-107.816 21.7277 192.114 255 0 0
-114.759 83.9315 208.816 255 0 0
63.5369 71.3618 354.77 255 0 0
-99.4735 29.2511 173.471 255 0 0
-124.791 77.0022 220.582 255 0 0
-1.70433 -1.33197 11.1763 255 0 0
40.1596 -21.3435 74.9226 255 0 0
-150.057 36.8919 395.644 255 0 0
36.863 -24.6359 75.7545 255 0 0
26.8931 -26.8558 150.006 255 0 0
63.9687 19.5011 153.576 255 0 0
-112.454 35.915 193.175 255 0 0
69.5054 31.3383 317.915 255 0 0
43.1934 -21.6518 88.264 255 0 0
-89.6185 -33.3329 261.593 255 0 0
-130.53 128.574 297.776 255 0 0
-94.1138 47.7275 227.489 255 0 0
75.9177 43.2094 222.645 255 0 0
-155.379 27.0867 367.318 255 0 0
75.1744 42.3246 204.969 255 0 0
0.0471378 0.22374 1.20352 255 0 0
63.6146 20.8873 242.732 255 0 0
75.3801 45.366 203.364 255 0 0
-49.4404 -17.8557 93.617 255 0 0
87.226 34.5359 188.387 255 0 0
22.7044 161.794 477.311 255 0 0
-119.955 88.1328 219.536 255 0 0
35.1649 -29.1772 104.019 255 0 0
-76.8728 -32.328 224.937 255 0 0
132.77 93.2797 379.25 255 0 0
-119.959 68.0514 213.799 255 0 0
-121.744 38.7115 252.281 255 0 0
46.8999 22.7207 398.818 255 0 0
50.3474 -28.4572 163.081 255 0 0
68.4713 -35.7499 259.41 255 0 0
-135.425 46.7312 336.789 255 0 0
47.3494 12.5682 82.7999 255 0 0
-44.5679 -19.3179 91.3962 255 0 0
0.912385 0.766625 3.02206 255 0 0
101.333 93.4831 276.441 255 0 0
-103.214 9.14103 196.374 255 0 0
98.9809 77.2407 190.098 255 0 0
-116.738 94.8743 224.031 255 0 0
-1.44826 -0.929041 5.79608 255 0 0
-3.54498 1.74795 8.04998 255 0 0
67.5485 67.7745 268.156 255 0 0
75.9028 45.079 156.956 255 0 0
40.0616 143.29 392.142 255 0 0
93.7701 62.5671 192.987 255 0 0
95.692 39.0309 325.619 255 0 0
56.3557 139.776 478.678 255 0 0
88.5652 38.1859 184.833 255 0 0
-37.2558 -65.4933 418.684 255 0 0
47.6664 7.35793 288.831 255 0 0
90.0799 97.1343 239.303 255 0 0
-160.755 85.5828 405.963 255 0 0
-125.005 40.4914 260.243 255 0 0
-130.353 112.383 252.429 255 0 0
78.4694 79.465 240.625 255 0 0
88.6063 -6.60064 190.142 255 0 0
42.3935 -15.8775 76.7159 255 0 0
61.4976 18.3062 145.408 255 0 0
46.6884 -26.1002 130.909 255 0 0
43.1816 -17.1195 77.3292 255 0 0
-17.7671 -25.9103 89.2214 255 0 0
-106.911 22.4546 183.472 255 0 0
55.9449 -29.1292 212.365 255 0 0
-22.0825 -28.9935 102.881 255 0 0
85.4625 97.5335 250.991 255 0 0
67.5868 76.591 233.705 255 0 0
72.0801 28.2666 189.235 255 0 0
89.9518 -6.62489 192.727 255 0 0
64.0752 -20.3714 159.53 255 0 0
49.0761 6.89631 296.772 255 0 0
-166.76 52.542 284.691 255 0 0
53.3538 40.7082 102.997 255 0 0
16.719 -50.9095 265.37 255 0 0
60.0894 61.867 330.649 255 0 0
41.0571 10.6139 71.9343 255 0 0
83.2917 97.0165 248.302 255 0 0
-13.421 -3.75912 34.6719 255 0 0
38.4552 -18.9708 95.3208 255 0 0
65.0578 19.5238 154.459 255 0 0
90.607 49.8348 390.36 255 0 0
81.2472 61.6532 156.245 255 0 0
0.113965 0.169532 1.43512 255 0 0
-113.753 17.9186 243.167 255 0 0
59.1161 55.2653 227.724 255 0 0
-72.321 -19.4608 166.136 255 0 0
66.7677 136.906 339.118 255 0 0
-114.254 -28.9869 294.647 255 0 0
-128.908 60.0215 315.219 255 0 0
30.2206 -28.1047 146.518 255 0 0
39.0057 25.9413 448.199 255 0 0
75.999 31.8576 258.782 255 0 0
41.0507 -15.7708 71.7337 255 0 0
77.6129 59.6711 248.398 255 0 0
43.447 10.1088 323.183 255 0 0
-1.15365 -0.641485 2.94267 255 0 0
-140.387 57.6841 304.959 255 0 0
-149.332 37.5724 395.895 255 0 0
-155.214 47.2062 478.026 255 0 0
69.9167 73.3258 265.972 255 0 0
-67.0883 -35.1373 193.008 255 0 0
78.3833 77.7193 237.979 255 0 0
70.0774 41.5029 198.467 255 0 0
-166.467 100.016 402.095 255 0 0
64.0755 99.0626 218.401 255 0 0
-53.7399 -13.3699 96.5937 255 0 0
-132.602 76.5063 343.544 255 0 0
79.865 80.6812 206.149 255 0 0
86.1918 135.375 294.47 255 0 0
-168.782 78.1358 475.035 255 0 0
-70.1846 29.0532 198.383 255 0 0
-128.615 79.637 226.307 255 0 0
85.5855 49.2816 177.338 255 0 0
28.8738 -27.0066 140.337 255 0 0
2.06062 -3.2891 22.6605 255 0 0
-136.091 91.2072 239.726 255 0 0
76.282 123.106 312.086 255 0 0
92.1015 99.3387 244.638 255 0 0
71.1635 87.5374 279.582 255 0 0
-112.756 124.345 267.534 255 0 0
-0.252023 -0.244176 2.70343 255 0 0
80.2909 29.5863 155.349 255 0 0
120.094 141.866 470.676 255 0 0
-125.523 -30.8316 323.616 255 0 0
6.61262 65.0398 269.115 255 0 0
63.7477 58.5899 243.77 255 0 0
32.4135 -20.7807 152.452 255 0 0
75.0739 41.713 193.579 255 0 0
76.2481 27.7091 154.577 255 0 0
-0.671899 -0.530316 3.26312 255 0 0
-82.8852 -51.2525 284.502 255 0 0
-117.347 57.4393 262.841 255 0 0
33.4698 -33.3454 137.826 255 0 0
-20.1426 54.3581 426.449 255 0 0
29.9371 -29.8865 123.535 255 0 0
41.1605 10.3609 72.7384 255 0 0
-134.002 108.342 240.848 255 0 0
-57.0488 -25.2118 105.203 255 0 0
-103.395 -50.1491 370.488 255 0 0
29.0661 -15.8765 80.5543 255 0 0
-109.064 -18.9366 205.524 255 0 0
-110.343 27.9016 212.845 255 0 0
-110.212 -26.7304 283.951 255 0 0
-0.0835732 2.80138 22.8034 255 0 0
48.9134 105.785 496.732 255 0 0
-140.434 71.8569 376.287 255 0 0
54.5851 158.838 380.798 255 0 0
-1.24518 -0.839438 3.86311 255 0 0
-138.282 12.1737 346.893 255 0 0
-138.701 70.9198 372.583 255 0 0
-131.68 43.6853 264.387 255 0 0
46.4479 5.00553 281.674 255 0 0
-0.183124 -1.24922 3.80356 255 0 0
3.53123 0.961997 8.24851 255 0 0
87.57 -14.3466 189.465 255 0 0
38.3264 -28.0928 99.0622 255 0 0
-70.3437 17.6058 135.266 255 0 0
69.1313 -26.2991 172.805 255 0 0
60.1146 33.2445 259.854 255 0 0
66.9681 -8.89733 186.906 255 0 0
-153.88 78.955 380.821 255 0 0
-52.7162 -20.649 92.0046 255 0 0
36.3232 -25.9111 109.475 255 0 0
-119.099 69.8893 210.105 255 0 0
-158.79 -3.11686 439.041 255 0 0
85.769 35.6856 175.311 255 0 0
-179.208 89.9457 445.657 255 0 0
71.6238 30.2082 244.53 255 0 0
-80.3342 -54.0317 296.584 255 0 0
-103.129 39.6489 182.512 255 0 0
1.466 -1.36452 6.24344 255 0 0
69.3409 30.9883 170.939 255 0 0
28.1509 -14.4062 63.918 255 0 0
-128.818 114.143 247.783 255 0 0
-0.910094 0.182692 4.83727 255 0 0
73.5062 38.6366 200.287 255 0 0
-0.159934 -0.313377 1.45329 255 0 0
-162.128 13.9358 407.744 255 0 0
-131.015 59.4822 272.94 255 0 0
82.7207 82.607 212.64 255 0 0
-158.377 12.2202 417.155 255 0 0
-93.8199 -5.5655 305.011 255 0 0
-0.257628 -0.0398575 2.44774 255 0 0
-2.27836 -58.5439 342.072 255 0 0
-110.078 54.7357 202.378 255 0 0
-120.53 12.293 257.296 255 0 0
82.6561 28.9608 173.122 255 0 0
-0.56105 0.551168 3.17179 255 0 0
63.5852 111.259 386.843 255 0 0
-161.889 34.6918 480.349 255 0 0
-72.9345 -27.4797 217.93 255 0 0
-122.775 48.7043 213.002 255 0 0
41.9352 -20.2267 71.3124 255 0 0
-46.4488 -17.7758 80.9024 255 0 0
91.8294 -6.79244 199.114 255 0 0
46.919 23.1784 78.6595 255 0 0
-129.033 51.9161 225.442 255 0 0
40.5444 14.564 71.0548 255 0 0
-99.3086 2.67733 293.82 255 0 0
76.72 13.0386 240.04 255 0 0
-126.908 92.608 227.806 255 0 0
67.1832 16.8877 162.167 255 0 0
-47.2669 -21.1305 86.9729 255 0 0
23.9787 -12.3873 54.6425 255 0 0
76.4784 17.5447 158.182 255 0 0
66.7661 19.4085 176.385 255 0 0
-70.1261 -15.6472 134.082 255 0 0
-35.9765 -7.28809 153.093 255 0 0
-125.775 92.3614 222.117 255 0 0
58.5628 15.6564 102.163 255 0 0
-103.121 19.1848 178.425 255 0 0
0.262789 0.00992562 4.3912 255 0 0
61.2788 15.7851 132.21 255 0 0
-67.3613 -14.2305 113.945 255 0 0
64.3395 25.8673 267.171 255 0 0
62.7475 19.9426 272.067 255 0 0
-126.443 93.8396 284.801 255 0 0
59.5066 18.3392 274.72 255 0 0
-107.986 27.7697 227.747 255 0 0
8.09015 -3.48823 15.4416 255 0 0
80.6451 31.6946 151.228 255 0 0
73.6279 -19.7947 282.848 255 0 0
39.1777 15.3354 72.9054 255 0 0
-124.549 58.6619 209.917 255 0 0
66.587 42.1754 183.06 255 0 0
76.6219 49.149 193.591 255 0 0
-122.603 43.5703 248.902 255 0 0
-67.889 -1.34821 212.827 255 0 0
66.2425 9.04037 171.296 255 0 0
-133.052 94.4768 221.737 255 0 0
49.5028 -26.262 113.231 255 0 0
-113.967 11.7117 243.628 255 0 0
82.5557 75.3508 324.212 255 0 0
7.09577 5.50106 31.9401 255 0 0
75.3281 42.5979 296.112 255 0 0
-51.1484 -14.9144 100.417 255 0 0
0.00167959 -0.374711 2.32329 255 0 0
0.748687 0.156768 4.765 255 0 0
84.4441 81.2294 254.229 255 0 0
91.7128 98.5533 255.034 255 0 0
80.2994 98.3451 359.981 255 0 0
10.5557 7.5889 88.5299 255 0 0
32.3799 -20.3347 67.1696 255 0 0
74.1647 87.7877 289.856 255 0 0
-135.974 87.1915 228.764 255 0 0
78.9665 -34.2704 217.78 255 0 0
13.6902 7.6162 32.003 255 0 0
68.5907 70.7347 171.702 255 0 0
87.5848 58.7736 180.338 255 0 0
-133.831 64.2443 297.299 255 0 0
65.9551 36.3931 180.031 255 0 0
47.058 -17.4917 81.9129 255 0 0
46.8997 -25.6785 129.321 255 0 0
56.022 35.8136 103.823 255 0 0
82.4794 -12.8679 182.389 255 0 0
-0.473072 0.695195 2.6676 255 0 0
-120.54 61.8694 207.767 255 0 0
-0.389087 1.0231 2.29103 255 0 0
1.83577 2.13701 5.24721 255 0 0
-160.261 25.7177 394.728 255 0 0
14.4639 -7.21214 31.5479 255 0 0
93.6478 99.0263 256.976 255 0 0
40.397 42.4532 445.481 255 0 0
1.66586 3.08172 7.25722 255 0 0
22.7906 -54.4684 313.453 255 0 0
-0.366078 0.165151 2.11776 255 0 0
73.9289 14.062 228.233 255 0 0
67.9555 115.021 401.596 255 0 0
66.0986 28.6894 165.43 255 0 0
-124.425 19.345 379.648 255 0 0
30.4443 -27.7252 123.857 255 0 0
-161.626 82.9181 453.645 255 0 0
-92.6721 48.7026 209.606 255 0 0
-69.6293 -16.8549 124.787 255 0 0
-134.822 122.007 392.451 255 0 0
46.2125 5.05901 253.493 255 0 0
107.079 -30.9346 410.313 255 0 0
76.8494 70.4166 307.62 255 0 0
-107.161 4.13653 493.172 255 0 0
87.1732 2.51381 182.007 255 0 0
-127.207 39.7741 256.385 255 0 0
-120.669 57.9347 267.868 255 0 0
-117.7 33.0222 259.105 255 0 0
-128.014 91.9291 273.462 255 0 0
-45.8867 -16.6749 91.0753 255 0 0
-98.3482 19.0471 164.765 255 0 0
81.7613 123.149 305.533 255 0 0
28.8029 33.6953 100.61 255 0 0
85.1032 -34.2145 225.256 255 0 0
-118.647 113.944 243.824 255 0 0
-59.8181 -20.2342 159.146 255 0 0
1.97908 -0.885294 6.09507 255 0 0
-16.2563 -24.9178 80.894 255 0 0
97.6325 90.9466 244.619 255 0 0
-0.283488 -0.232461 2.01156 255 0 0
-56.5864 -13.2684 102.084 255 0 0
5.32324 -2.48671 13.2253 255 0 0
41.8778 -26.4094 87.2925 255 0 0
81.317 57.2573 141.323 255 0 0
-55.8003 -21.2986 124.932 255 0 0
70.1948 16.2711 217.355 255 0 0
87.0007 -38.6458 240.724 255 0 0
-129.843 74.7356 283.169 255 0 0
38.1984 -18.7083 81.2542 255 0 0
67.535 9.09002 176.395 255 0 0
65.9275 27.8852 164.507 255 0 0
88.4994 33.0748 353.444 255 0 0
-0.279224 -0.275811 2.87099 255 0 0
-106.545 43.8559 208.945 255 0 0
75.4385 87.6019 353.547 255 0 0
47.1927 -29.5313 170.286 255 0 0
38.1096 -23.9981 79.5488 255 0 0
59.1643 16.3412 151.059 255 0 0
48.2042 14.5313 239.59 255 0 0
114.628 168.961 390.121 255 0 0
29.1034 44.7551 109.365 255 0 0
93.6816 12.2896 177.14 255 0 0
-137.02 72.9116 333.926 255 0 0
-116.623 81.5906 269.9 255 0 0
-4.89858 0.25095 12.4295 255 0 0
91.9699 48.5339 179.888 255 0 0
37.4343 -23.5595 79.2231 255 0 0
37.7865 14.5276 136.956 255 0 0
-84.0907 -7.56242 269.976 255 0 0
101.08 95.7181 271.401 255 0 0
-136.209 128.801 427.804 255 0 0
22.2923 -1.86881 224.212 255 0 0
3.17846 -2.30844 10.6878 255 0 0
69.3584 14.2999 213.669 255 0 0
-119.71 121.156 293.979 255 0 0
46.7427 92.9167 432.529 255 0 0
-3.06558 -1.64398 10.1941 255 0 0
-126.003 69.0015 229.748 255 0 0
-115.885 45.8291 211.486 255 0 0
-131.401 96.6321 273.048 255 0 0
7.57703 91.4924 419.651 255 0 0
8.10099 5.13661 34.2033 255 0 0
-0.310207 0.629224 2.40551 255 0 0
-140.229 76.3738 311.458 255 0 0
-0.06591 -0.219836 1.35918 255 0 0
-60.1386 -35.2955 165.549 255 0 0
-70.919 38.8231 171.064 255 0 0
-104.611 12.3688 190.989 255 0 0
-59.2878 -21.9536 149.204 255 0 0
-133.796 72.2196 298.368 255 0 0
73.7434 31.8201 144.827 255 0 0
64.1871 46.2045 247.089 255 0 0
-0.27158 0.462098 2.53131 255 0 0
-122.183 67.221 270.598 255 0 0
71.7208 -15.8894 188.629 255 0 0
-101.746 11.8463 186.152 255 0 0
1.27092 -0.626087 3.22002 255 0 0
-16.9166 -25.6158 84.558 255 0 0
-143.067 13.0702 337.409 255 0 0
-0.784976 -0.409192 2.96446 255 0 0
-140.507 103.45 292.056 255 0 0
-118.703 83.7026 252.051 255 0 0
59.7785 25.9443 147.568 255 0 0
-0.644338 -0.135483 3.76921 255 0 0
48.8835 -25.7367 146.971 255 0 0
59.0973 58.6081 377.725 255 0 0
-104.897 12.915 201.961 255 0 0
84.9255 30.362 163.52 255 0 0
7.09242 1.75629 22.6184 255 0 0
-1.13035 117.895 454.838 255 0 0
91.954 11.4076 185.94 255 0 0
-117.017 34.4814 244.393 255 0 0
51.5224 -32.7924 308.247 255 0 0
73.7496 111.921 253.13 255 0 0
-145.797 131.874 449.339 255 0 0
40.899 -16.344 76.006 255 0 0
39.6395 -23.2968 76.7668 255 0 0
73.0934 -29.1001 188.086 255 0 0
-115.202 -52.1075 422.062 255 0 0
-76.1274 -19.3725 163.936 255 0 0
-5.42242 3.56782 14.7605 255 0 0
-5.39606 3.51671 14.6798 255 0 0
81.5307 16.5557 183.925 255 0 0
-0.51654 0.392764 2.91153 255 0 0
-52.1878 -16.4642 92.9045 255 0 0
82.4136 118.745 360.956 255 0 0
-127.228 69.9509 232.319 255 0 0
-1.56437 0.338444 4.40987 255 0 0
-148.264 108.819 262.022 255 0 0
102.418 152.175 362.448 255 0 0
102.135 -40.9305 270.021 255 0 0
62.8465 16.2719 159.846 255 0 0
92.4181 11.6327 186.749 255 0 0
82.3858 119.489 362.353 255 0 0
-66.997 -42.9707 213.671 255 0 0
38.3387 -22.5341 74.2852 255 0 0
93.5675 87.9271 234.813 255 0 0
4.84216 0.0417738 126.507 255 0 0
68.0236 44.8519 168.962 255 0 0
58.5709 7.90532 247.966 255 0 0
70.0363 93.6915 216.865 255 0 0
61.6847 61.8315 411.673 255 0 0
13.2634 22.3842 53.3807 255 0 0
70.8437 14.2833 159.518 255 0 0
60.2082 117.336 389.621 255 0 0
-48.6246 -27.8935 126.157 255 0 0
85.4256 33.8077 173.361 255 0 0
83.6006 64.8445 165.385 255 0 0
-133.21 128.51 374.724 255 0 0
-121.442 49.5949 247.262 255 0 0
37.4697 -37.706 162.539 255 0 0
-87.5484 83.1459 232.68 255 0 0
-0.354266 -0.359643 2.06888 255 0 0
86.2988 -21.6601 145.381 255 0 0
-150.475 11.2278 481.203 255 0 0
-109.72 51.9626 203.829 255 0 0
-97.2268 12.1845 176.64 255 0 0
4.17918 1.79142 8.92832 255 0 0
-59.7438 -37.2403 190.939 255 0 0
7.63877 1.16952 17.5288 255 0 0
82.8466 114.527 250.193 255 0 0
-134.44 86.9537 318.46 255 0 0
-109.129 48.3034 234.768 255 0 0
-80.4942 -43.6935 278.913 255 0 0
21.5407 -37.3461 246.635 255 0 0
40.3359 -46.3007 323.486 255 0 0
62.3652 65.7609 375.532 255 0 0
33.7972 -25.891 103.566 255 0 0
88.3176 10.7051 190.642 255 0 0
80.263 31.7917 156.271 255 0 0
59.1965 41.5924 381.346 255 0 0
73.8555 13.76 299.772 255 0 0
9.39269 -47.5327 265.421 255 0 0
84.3409 114.2 251.618 255 0 0
-60.3201 -22.9806 139.185 255 0 0
-155.33 90.9282 391.452 255 0 0
-107.988 20.1334 202.885 255 0 0
-48.3925 -17.3388 102.225 255 0 0
42.8971 -6.45529 137.826 255 0 0
-40.8389 -9.97738 78.9967 255 0 0
79.1176 9.21465 204.578 255 0 0
71.1458 -16.0432 188.091 255 0 0
64.3795 -22.6097 157.682 255 0 0
84.8912 66.1317 167.123 255 0 0
0.88209 0.0911303 4.25536 255 0 0
32.8099 19.2169 206.236 255 0 0
-49.1892 -16.9597 89.0733 255 0 0
-134.746 88.8703 224.958 255 0 0
-47.8581 -31.3637 148.62 255 0 0
87.837 10.4766 189.774 255 0 0
88.1221 12.7939 227.367 255 0 0
81.8359 53.31 148.177 255 0 0
-122.905 67.8737 271.761 255 0 0
78.9274 27.7851 172.995 255 0 0
76.3073 58.6895 195.029 255 0 0
78.7526 31.5135 162.095 255 0 0
28.1334 -39.6159 232.064 255 0 0
30.1554 148.249 359.695 255 0 0
19.7844 -49.0656 420.92 255 0 0
65.0423 -29.377 366.373 255 0 0
-131.79 40.1847 287.451 255 0 0
-101.794 51.9987 203.472 255 0 0
-100.228 94.5144 314.296 255 0 0
-0.00849615 -0.0856734 2.28356 255 0 0
-97.2881 71.9219 212.098 255 0 0
-19.4737 -22.308 55.2233 255 0 0
18.2707 -35.4372 150.002 255 0 0
52.4595 36.8542 245.543 255 0 0
-134.609 123.003 355.348 255 0 0
-80.3954 66.4648 247.852 255 0 0
90.3256 4.07916 175.766 255 0 0
74.6436 75.5598 182.645 255 0 0
-13.5984 -22.5675 64.9921 255 0 0
72.7533 32.512 140.394 255 0 0
26.2167 0.476662 55.6071 255 0 0
69.2485 46.8192 260.085 255 0 0
60.7964 -23.8163 156.701 255 0 0
76.4871 44.1292 174.379 255 0 0
67.0323 43.2918 162.709 255 0 0
0.11505 -0.217055 2.50589 255 0 0
40.7577 -21.8536 74.3069 255 0 0
66.8278 -12.6263 168.085 255 0 0
-132.676 91.2488 312.075 255 0 0
32.5529 -35.47 137.874 255 0 0
84.8855 32.9142 309.213 255 0 0
1.41027 -1.52298 8.77775 255 0 0
-48.4606 -9.3451 98.6656 255 0 0
98.1859 38.1774 406.42 255 0 0
82.9189 59.3645 244.917 255 0 0
-124.147 62.0569 305.281 255 0 0
-182.284 -39.3254 339.738 255 0 0
41.4138 -21.4818 74.2924 255 0 0
-65.319 -40.3932 208.938 255 0 0
-49.227 -18.2715 102.129 255 0 0
14.8139 6.28429 29.5352 255 0 0
39.1032 -19.7324 78.6468 255 0 0
-108.94 37.2118 239.661 255 0 0
-70.2361 -17.5931 151.149 255 0 0
-30.6 11.5673 72.9806 255 0 0
34.973 4.21341 264.947 255 0 0
-54.6922 -23.7091 107.387 255 0 0
83.0416 38.3519 162.05 255 0 0
75.4076 -11.5409 153.838 255 0 0
65.498 -13.6651 161.568 255 0 0
44.216 5.13553 116.949 255 0 0
-108.404 -18.1188 196.411 255 0 0
-92.3662 11.1045 155.273 255 0 0
28.4093 -14.0977 75.5307 255 0 0
43.9339 -30.5656 265.664 255 0 0
-92.3082 11.8442 189.253 255 0 0
-22.9049 -28.9183 102.622 255 0 0
53.0456 7.10992 158.033 255 0 0
-66.5483 -36.3575 184.05 255 0 0
90.9539 51.7034 179.243 255 0 0
-153.533 63.5235 330.102 255 0 0
-146.404 47.762 387.18 255 0 0
88.4842 117.583 261.663 255 0 0
78.3067 78.4396 191.537 255 0 0
24.268 15.124 44.149 255 0 0
33.7863 24.1622 258.901 255 0 0
-0.58036 0.0945824 2.47775 255 0 0
56.8235 -22.0181 209.817 255 0 0
111.26 168.262 372.934 255 0 0
60.1122 111.827 385.974 255 0 0
81.5614 35.6056 162.712 255 0 0
-59.058 -27.53 131.584 255 0 0
-157.175 4.97079 458.252 255 0 0
-145.037 116.295 403.62 255 0 0
-128.126 76.0805 319.809 255 0 0
4.37222 0.532 31.6004 255 0 0
55.0915 177.335 394.997 255 0 0
-123.333 40.283 327.437 255 0 0
-0.388074 -0.872656 13.3911 255 0 0
-164.414 121.865 444.083 255 0 0
-46.4664 -27.5095 101.419 255 0 0
87.8446 -8.69012 170.393 255 0 0
22.379 -46.2639 189.407 255 0 0
-100.213 32.7068 226.876 255 0 0
-55.4837 -26.3948 197.809 255 0 0
85.0255 49.1436 189.91 255 0 0
-121.502 121.913 292.248 255 0 0
-99.7536 33.1649 174.029 255 0 0
80.7551 72.1601 287.305 255 0 0
90.4853 12.1513 160.015 255 0 0
81.5878 68.4261 165.858 255 0 0
50.0978 37.49 348.286 255 0 0
67.6061 104.531 251.129 255 0 0
83.1956 60.2664 239.429 255 0 0
35.6084 21.218 248.602 255 0 0
-108.23 70.0407 220.153 255 0 0
-128.568 105.932 376.242 255 0 0
28.9689 17.5457 450.616 255 0 0
-135.519 64.4611 252.021 255 0 0
105.46 66.7671 188.292 255 0 0
-143.497 89.9861 405.117 255 0 0
-128.346 48.9917 280.978 255 0 0
57.3038 33.74 357.433 255 0 0
39.7466 -18.269 76.8206 255 0 0
0.038182 -0.625754 1.54938 255 0 0
73.2513 12.815 217.934 255 0 0
32.4607 -42.2573 236.361 255 0 0
-126.478 70.1835 240.388 255 0 0
26.4101 -30.6902 171.659 255 0 0
0.225918 -0.015139 1.73019 255 0 0
48.7707 11.2364 88.8869 255 0 0
98.0447 25.4958 236.002 255 0 0
67.7078 12.7737 193.078 255 0 0
-0.169614 -0.359774 1.66186 255 0 0
1.39997 1.09367 3.46372 255 0 0
-13.901 -27.312 85.3032 255 0 0
-47.371 -18.5924 85.1326 255 0 0
97.491 -8.14697 176.265 255 0 0
78.9673 45.2827 149.325 255 0 0
8.09833 -54.7667 281.585 255 0 0
49.3954 8.71112 147.536 255 0 0
65.6929 67.1984 165 255 0 0
-10.4293 -65.3503 366.615 255 0 0
19.2749 28.257 69.9262 255 0 0
42.1945 -21.7894 76.1686 255 0 0
-74.2948 -40.206 273.937 255 0 0
87.9781 36.7056 194.574 255 0 0
15.8863 -33.3262 134.24 255 0 0
51.4238 -22.7505 127.684 255 0 0
-115.823 81.2206 227.71 255 0 0
-74.627 -21.2579 150.121 255 0 0
59.2657 -0.63947 222.306 255 0 0
59.801 185.452 393.954 255 0 0
75.756 30.8297 235.939 255 0 0
33.6441 -35.7041 139.8 255 0 0
32.9755 -28.5795 129.525 255 0 0
31.1216 -21.9986 102.845 255 0 0
79.2996 31.1264 161.016 255 0 0
-0.0785372 -0.30754 2.35519 255 0 0
76.8767 43.5612 148.059 255 0 0
72.2686 80.0913 264.254 255 0 0
80.0324 34.457 347.164 255 0 0
44.945 -31.4353 146.385 255 0 0
81.2351 53.4407 153.746 255 0 0
40.9807 14.6987 387.204 255 0 0
-132.905 39.3569 300.681 255 0 0
88.0465 10.2971 182.389 255 0 0
38.3159 15.4279 109.994 255 0 0
-69.0277 -24.8314 119.958 255 0 0
65.7572 37.2253 271.853 255 0 0
94.6546 118.611 271.163 255 0 0
-19.7998 -39.7949 123.134 255 0 0
1.54028 -3.15043 18.781 255 0 0
31.2842 -32.8661 129.106 255 0 0
38.3386 14.9062 72.4796 255 0 0
-0.31061 0.625858 2.40217 255 0 0
76.1357 31.1579 323.11 255 0 0
70.6554 -34.0576 298.581 255 0 0
42.5056 47.0989 254.842 255 0 0
-136.538 51.3232 295.901 255 0 0
73.874 24.7583 225.063 255 0 0
-133.764 -16.0574 385.049 255 0 0
57.7785 63.1799 396.229 255 0 0
85.5058 33.7116 166.218 255 0 0
86.2231 0.786036 180.113 255 0 0
-88.9705 29.2596 200.633 255 0 0
-41.6112 -30.7683 132.376 255 0 0
87.8582 8.2013 171.541 255 0 0
87.7912 34.391 174.886 255 0 0
6.38902 3.76687 13.9288 255 0 0
42.2415 53.6417 263.194 255 0 0
-126.154 90.4088 321.751 255 0 0
40.1761 -23.639 75.7184 255 0 0
84.8064 33.1649 243.822 255 0 0
47.2338 -52.7626 377.995 255 0 0
26.8556 -28.0395 144.601 255 0 0
-46.9922 -26.4853 126.247 255 0 0
-24.912 -18.6337 78.4744 255 0 0
-164.094 112.993 358.014 255 0 0
92.2905 0.549736 185.472 255 0 0
55.3795 155.05 495.192 255 0 0
135.934 177.476 396.63 255 0 0
-15.2579 -23.0365 70.9844 255 0 0
86.1479 -43.6133 357.336 255 0 0
1.95209 1.9918 4.5046 255 0 0
120.449 44.5373 243.485 255 0 0
73.3529 -37.2263 212.857 255 0 0
68.5778 11.8904 227.161 255 0 0
-80.6233 5.89174 379.059 255 0 0
93.4496 -4.17482 158.806 255 0 0
-112.528 68.8713 213.983 255 0 0
-131.16 69.1042 310.58 255 0 0
66.4362 -6.29487 221.382 255 0 0
-85.2646 -23.3133 169.356 255 0 0
-0.343459 0.641789 1.92721 255 0 0
76.9495 146.403 318.737 255 0 0
76.3693 22.6104 206.406 255 0 0
96.021 75.7645 288.321 255 0 0
-132.781 39.1194 318.818 255 0 0
-8.48072 -86.6528 465.681 255 0 0
-151.671 80.9614 321.27 255 0 0
92.8249 53.214 215.721 255 0 0
-0.333435 0.25164 3.65594 255 0 0
-160.768 22.0711 424.711 255 0 0
-115.077 -17.7264 362.876 255 0 0
-109.259 70.1384 222.26 255 0 0
-69.3852 -28.1255 235.898 255 0 0
63.8481 38.471 185.939 255 0 0
2.44404 2.63091 8.10273 255 0 0
-73.2874 72.4443 180.272 255 0 0
72.2907 40.1515 142.63 255 0 0
89.0943 73.4786 184.523 255 0 0
76.3545 83.4678 258.946 255 0 0
-8.18466 2.36637 23.6909 255 0 0
34.6589 -42.6722 181.942 255 0 0
23.1788 34.068 83.6612 255 0 0
-136.801 139.668 323.86 255 0 0
-1.53871 -0.72964 3.8004 255 0 0
61.7525 7.26141 148.489 255 0 0
-103.948 54.2355 239.989 255 0 0
-45.0462 -26.7256 96.3874 255 0 0
32.9183 -23.1244 107.731 255 0 0
97.6158 124.498 275.838 255 0 0
-1.22658 0.971036 3.23743 255 0 0
63.6706 45.7541 483.905 255 0 0
80.4173 113.92 303.389 255 0 0
-122.736 70.13 274.233 255 0 0
25.185 101.495 302.382 255 0 0
42.8051 -22.9053 72.0299 255 0 0
49.5716 157.925 401.415 255 0 0
54.0512 5.73504 147.054 255 0 0
9.56731 3.9782 20.1352 255 0 0
16.9866 9.56355 33.4457 255 0 0
84.2229 -43.2835 350.063 255 0 0
-132.202 103.45 308.167 255 0 0
28.9611 -23.6053 92.6995 255 0 0
92.2277 0.752508 185.268 255 0 0
12.919 -56.3842 281.945 255 0 0
-42.9613 -19.4393 80.8561 255 0 0
27.6764 -29.5387 134.815 255 0 0
-49.8648 -25.0361 131.838 255 0 0
-117.877 46.6015 230.202 255 0 0
-0.152399 -0.0125902 2.6682 255 0 0
65.8398 -4.97303 214.338 255 0 0
79.741 16.6845 167.337 255 0 0
68.384 104.849 245.453 255 0 0
74.926 -23.6729 159.361 255 0 0
110.185 -30.869 227.785 255 0 0
23.0246 -25.9691 153.332 255 0 0
75.3267 32.5413 174.816 255 0 0
0.0722726 -0.295526 1.55754 255 0 0
67.7091 46.091 263.697 255 0 0
70.1129 -23.2325 162.538 255 0 0
27.9267 -29.6855 136.172 255 0 0
80.0235 -8.25214 190.535 255 0 0
51.3729 -1.90489 181.162 255 0 0
55.3959 -6.74501 105.268 255 0 0
-9.73879 1.65963 27.5127 255 0 0
142.568 58.2769 425.902 255 0 0
36.6605 -3.06825 120.204 255 0 0
1.04127 0.318702 4.84711 255 0 0
-0.256147 -0.447559 3.08266 255 0 0
-135.265 72.6887 286.888 255 0 0
66.9676 20.7008 220.643 255 0 0
-111.74 36.2245 219.057 255 0 0
-57.8644 52.8661 156.827 255 0 0
45.59 -15.4642 80.4622 255 0 0
-133.802 129.63 429.205 255 0 0
73.1476 -35.3352 264.828 255 0 0
77.6963 49.0748 166.159 255 0 0
-123.838 4.08869 424.016 255 0 0
36.0838 -18.0534 84.8705 255 0 0
78.6357 131.725 368.481 255 0 0
0.0199266 -0.252659 1.98026 255 0 0
56.9721 83.6014 375.725 255 0 0
51.2367 36.6406 356.635 255 0 0
84.6406 55.4493 158.959 255 0 0
93.0721 64.66 407.264 255 0 0
0.144882 63.6156 243.624 255 0 0
15.8233 -10.557 36.5572 255 0 0
58.2693 39.1358 450.656 255 0 0
-122.043 89.966 246.796 255 0 0
-162.099 5.57974 447.209 255 0 0
56.376 -19.2105 99.2512 255 0 0
11.0992 -44.0538 258.259 255 0 0
73.9485 20.4534 198.722 255 0 0
36.486 -25.6497 86.841 255 0 0
27.2387 -28.8733 147.255 255 0 0
-15.1251 -23.0048 68.3584 255 0 0
60.9402 18.7603 239.253 255 0 0
-0.0951185 -0.245848 1.94668 255 0 0
-138.991 134.734 389.043 255 0 0
-104.675 26.1454 213.755 255 0 0
-154.081 24.1316 385.514 255 0 0
49.8111 -23.5993 117.522 255 0 0
-100.194 76.7037 193.578 255 0 0
-0.587734 0.0702299 3.68806 255 0 0
-4.21595 4.82683 47.9912 255 0 0
-100.819 15.2994 186.89 255 0 0
-104.901 17.4872 199.332 255 0 0
-0.309704 0.173701 1.95581 255 0 0
-52.8436 -25.3002 312.29 255 0 0
-112.637 40.3716 199.751 255 0 0
-0.369361 -0.826989 5.06756 255 0 0
52.467 -2.44726 192.04 255 0 0
87.0692 -0.202016 186.992 255 0 0
-13.35 -28.8543 481.138 255 0 0
26.446 -34.9577 245.084 255 0 0
-152.194 119.077 415.888 255 0 0
61.7442 11.911 233.922 255 0 0
90.6274 34.4544 177.333 255 0 0
-14.3896 -21.7964 64.8965 255 0 0
80.4757 33.2854 247.25 255 0 0
104.659 34.732 218.874 255 0 0
1.47769 1.00954 3.5629 255 0 0
81.8652 34.9915 153.34 255 0 0
-111.531 44.8068 198.045 255 0 0
76.2375 87.983 253.802 255 0 0
-0.504603 0.627183 2.09351 255 0 0
0.393082 -0.497653 2.92457 255 0 0
27.1668 61.868 168.553 255 0 0
-52.2047 -19.214 93.0232 255 0 0
-112.981 103.831 284.678 255 0 0
-146.038 98.1394 284.847 255 0 0
-0.129463 0.411236 1.31809 255 0 0
-95.664 -18.717 177.161 255 0 0
0.213721 -0.163587 2.12238 255 0 0
-130.61 60.4647 254.321 255 0 0
-48.8765 -24.542 95.8472 255 0 0
28.445 26.1404 286.317 255 0 0
87.7214 16.209 176.485 255 0 0
70.6069 16.1145 230.945 255 0 0
71.5764 54.7432 174.168 255 0 0
-134.342 52.5701 275.8 255 0 0
72.2842 27.7617 147.589 255 0 0
2.61843 4.96195 10.703 255 0 0
-61.9638 -15.7334 116.953 255 0 0
0.0464171 0.196734 1.08937 255 0 0
53.0894 31.8401 368.623 255 0 0
57.4833 18.9486 120.778 255 0 0
76.6983 49.2749 165.36 255 0 0
-12.4861 -25.5791 103.578 255 0 0
-52.8557 -18.8579 91.6073 255 0 0
76.4331 30.9396 150.067 255 0 0
-49.7364 -17.6865 88.2063 255 0 0
2.82011 -2.95933 10.6496 255 0 0
46.6516 -52.4801 441.845 255 0 0
-17.3424 -27.1663 88.8198 255 0 0
-1.39555 -0.427079 5.86088 255 0 0
75.8744 22.232 217.082 255 0 0
84.2494 31.8076 164.788 255 0 0
19.8748 -49.9252 180.668 255 0 0
-136.617 85.8389 274.372 255 0 0
25.5367 -35.052 144.91 255 0 0
29.7494 7.92173 52.2342 255 0 0
-124.914 82.7555 233.833 255 0 0
-153.698 174.951 386.399 255 0 0
153.128 62.446 451.58 255 0 0
86.205 76.6714 188.708 255 0 0
-68.1467 -21.5241 176.701 255 0 0
-67.3802 -21.1568 144.674 255 0 0
61.5583 66.6832 199.913 255 0 0
13.0649 -55.8414 470.992 255 0 0
-101.223 -28.1392 186.417 255 0 0
-66.538 -21.1969 152.689 255 0 0
1.2934 1.25758 5.35569 255 0 0
81.0373 -2.61492 255.14 255 0 0
245.202 96.7182 495.413 255 0 0
-27.902 -21.266 54.5068 255 0 0
-142.245 114.21 422.735 255 0 0
-8.86513 -69.2588 378.104 255 0 0
8.73569 0.740605 38.518 255 0 0
38.7586 -28.3905 114.133 255 0 0
-114.18 69.473 206.89 255 0 0
-0.612581 0.21372 2.23046 255 0 0
-45.3161 -17.4399 89.0427 255 0 0
-59.7537 -24.6066 196.38 255 0 0
114.236 65.2437 240.108 255 0 0
-0.493372 -0.803376 2.22147 255 0 0
-114.671 106.101 237.427 255 0 0
65.8074 64.5621 154.039 255 0 0
81.4815 69.1602 193.251 255 0 0
-1.11264 0.972749 3.24501 255 0 0
79.1829 54.5742 331.762 255 0 0
0.412908 -0.148629 2.80405 255 0 0
31.254 -63.359 328.907 255 0 0
0.60322 0.462529 1.95783 255 0 0
64.7197 19.5687 200.859 255 0 0
-69.4783 62.6281 145.836 255 0 0
83.6878 -4.27598 175.322 255 0 0
-147.161 115.458 295.957 255 0 0
-111.874 112.879 246.776 255 0 0
113.178 64.8014 222.753 255 0 0
-46.0513 -12.49 84.2046 255 0 0
-111.049 64.923 214.71 255 0 0
-130.223 -28.844 288.383 255 0 0
7.54504 1.46246 13.4725 255 0 0
0.496885 0.299551 2.66749 255 0 0
1.46352 0.530929 3.58689 255 0 0
61.9713 23.8459 126.705 255 0 0
-146.873 21.1017 356.314 255 0 0
-171.048 60.9119 397.64 255 0 0
-36.8418 -27.0747 93.1847 255 0 0
40.2662 -20.574 78.9754 255 0 0
-13.9745 -23.9477 468.309 255 0 0
34.7918 5.38958 146.368 255 0 0
16.0189 -38.9086 181.978 255 0 0
-147.759 25.786 434.188 255 0 0
-108.944 63.5885 203.293 255 0 0
85.7638 62.8385 158.463 255 0 0
25.3756 -42.2361 253.596 255 0 0
62.6631 1.64244 223.432 255 0 0
60.6088 7.17152 288.323 255 0 0
65.0848 21.1313 146.827 255 0 0
63.0008 48.8953 157.878 255 0 0
96.2642 60.5298 211.299 255 0 0
74.1913 15.4022 150.899 255 0 0
2.33378 0.281687 8.78868 255 0 0
-106.998 51.4812 223.564 255 0 0
27.7653 -30.0986 111.74 255 0 0
45.2923 -23.072 88.6887 255 0 0
-0.996946 0.750757 3.48806 255 0 0
81.0622 52.7117 136.728 255 0 0
64.8155 18.8137 182.57 255 0 0
-37.971 -11.5635 97.7616 255 0 0
-154.622 150.855 322.267 255 0 0
95.359 80.4913 222.813 255 0 0
62.7632 10.0221 190.877 255 0 0
82.3541 100.705 237.353 255 0 0
61.7961 2.90167 296.623 255 0 0
-14.8891 -24.4416 76.6348 255 0 0
59.8312 74.0887 382.312 255 0 0
-154.537 44.3303 379.151 255 0 0
72.7328 61.4292 170.64 255 0 0
69.4898 106.769 229.496 255 0 0
-51.4468 -38.4498 169.214 255 0 0
-170.222 114.487 354.367 255 0 0
-3.4899 2.5925 8.04829 255 0 0
-116.389 72.4433 234.291 255 0 0
31.3103 -34.1841 142.702 255 0 0
82.4999 68.7919 188.588 255 0 0
66.1374 38.6953 383.224 255 0 0
49.178 -24.4706 155.711 255 0 0
-44.5239 -15.6552 78.8491 255 0 0
36.973 167.76 379.903 255 0 0
-0.0853686 0.460601 3.46722 255 0 0
-107.772 -15.8655 204.066 255 0 0
59.6997 35.171 227.884 255 0 0
83.9139 26.7678 172.143 255 0 0
-65.9189 -34.8114 128.725 255 0 0
33.9644 -24.8837 72.8483 255 0 0
-94.6455 89.1053 192.079 255 0 0
41.1586 -27.784 97.4796 255 0 0
-31.6436 -23.7886 73.7582 255 0 0
0.236703 0.478798 3.09897 255 0 0
-0.198075 0.407835 1.66812 255 0 0
36.887 -24.5287 96.1952 255 0 0
61.6598 14.8974 256.242 255 0 0
7.52664 6.3921 17.0194 255 0 0
73.9706 19.1023 305.494 255 0 0
92.5732 -9.97354 184.765 255 0 0
75.2868 47.8972 154.05 255 0 0
80.3 49.6204 149.212 255 0 0
-0.452105 -0.426764 2.5256 255 0 0
-1.33981 -0.960485 3.79277 255 0 0
2.07133 1.01922 5.95155 255 0 0
92.3667 56.7428 151.659 255 0 0
89.4244 58.2826 156.071 255 0 0
87.6008 -7.32568 151.452 255 0 0
40.9644 -33.712 251.512 255 0 0
-80.2905 -46.0206 286.275 255 0 0
-81.7508 -43.2247 159.925 255 0 0
22.4135 -9.6767 54.606 255 0 0
79.1872 -36.6322 285.253 255 0 0
-55.8 38.7216 120.732 255 0 0
-75.5293 -40.039 147.664 255 0 0
0.0202283 0.39957 1.43868 255 0 0
48.0693 -35.7598 336.121 255 0 0
26.2683 -34.6078 140.429 255 0 0
-51.5447 -13.0434 87.0635 255 0 0
64.7978 50.6958 162.339 255 0 0
118.286 153.89 436.437 255 0 0
-48.5089 -21.1497 97.6458 255 0 0
-20.8039 -21.9076 309.365 255 0 0
70.2867 30.8696 286.184 255 0 0
-0.223386 -0.304727 1.46021 255 0 0
-127.438 95.7915 251.268 255 0 0
-124.994 49.1576 256.522 255 0 0
36.242 -25.1518 63.8592 255 0 0
4.42832 -5.42861 36.044 255 0 0
64.3 24.0272 149.921 255 0 0
45.1077 4.36224 123.644 255 0 0
8.26702 -43.2211 206.152 255 0 0
54.4784 22.0531 244.518 255 0 0
36.0737 -26.8871 78.3399 255 0 0
44.9954 -35.3657 367.855 255 0 0
110.077 70.6994 243.143 255 0 0
-0.448497 -0.419364 2.51983 255 0 0
29.7265 -41.1807 166.454 255 0 0
42.07 -29.9511 101.002 255 0 0
-0.168278 0.701525 1.52475 255 0 0
-52.8628 -25.5648 102.494 255 0 0
44.355 29.7099 182.647 255 0 0
-31.1753 -63.6184 394.715 255 0 0
-104.956 19.8184 213.316 255 0 0
-0.430473 0.657018 2.82841 255 0 0
-44.6612 -15.3757 79.2985 255 0 0
29.3381 143.522 324.493 255 0 0
-0.936187 0.238418 4.15791 255 0 0
-17.0432 -19.8688 398.161 255 0 0
48.892 -24.8458 154.372 255 0 0
72.0923 47.1493 187.122 255 0 0
14.674 -0.262953 27.6061 255 0 0
34.9883 -21.1349 78.1431 255 0 0
41.3549 -31.8395 337.638 255 0 0
-126.878 81.0996 254.785 255 0 0
35.9216 -21.5685 80.471 255 0 0
40.7053 -20.2073 101.456 255 0 0
-63.2481 -15.6773 106.013 255 0 0
71.3621 31.0355 189.658 255 0 0
-92.1708 16.3185 154.632 255 0 0
46.2463 8.78168 193.728 255 0 0
-78.3657 12.5601 130.313 255 0 0
-92.5712 6.41017 225.585 255 0 0
100.611 92.3742 256.783 255 0 0
26.5728 -44.1075 265.432 255 0 0
43.3001 -38.9828 313.916 255 0 0
-64.7156 -32.5816 162.124 255 0 0
39.6053 -24.2479 76.418 255 0 0
-94.1165 74.5477 258.069 255 0 0
9.81823 3.21899 18.678 255 0 0
35.9329 116.143 262.011 255 0 0
81.817 43.2391 179.979 255 0 0
-28.3169 -21.6723 56.7567 255 0 0
93.4514 71.7359 196.686 255 0 0
58.9846 14.29 277.481 255 0 0
-127.458 111.215 377.028 255 0 0
74.53 46.8259 163.888 255 0 0
47.8181 8.00874 84.5021 255 0 0
-139.76 132.925 316.268 255 0 0
38.0197 -18.2803 75.7556 255 0 0
31.016 -38.4723 329.438 255 0 0
-141.908 118.483 262.215 255 0 0
41.441 -27.5276 97.4048 255 0 0
101.624 -3.18621 213.691 255 0 0
71.9564 160.246 414.614 255 0 0
-59.3971 -18.6939 127.379 255 0 0
-103.487 8.12314 246.21 255 0 0
56.8016 12.254 116.118 255 0 0
0.97093 0.385227 3.8426 255 0 0
69.8102 25.1851 216.28 255 0 0
-143.253 71.8442 268.758 255 0 0
-131.501 105.618 305.138 255 0 0
-139.499 47.0417 335.618 255 0 0
48.1322 -25.3577 139.919 255 0 0
-79.7779 28.1717 138.514 255 0 0
32.6098 124.064 382.782 255 0 0
-136.714 48.1768 266.731 255 0 0
-1.82563 0.354289 4.51812 255 0 0
-148.652 98.6098 289.429 255 0 0
7.18261 -42.4665 203.979 255 0 0
64.0588 -13.5787 279.621 255 0 0
0.127368 0.4554 1.17959 255 0 0
35.0342 -24.9553 84.3479 255 0 0
3.98729 -1.60593 9.35383 255 0 0
73.2923 78.0792 197.06 255 0 0
4.76729 14.2876 31.7317 255 0 0
-79.5562 -19.7688 150.482 255 0 0
35.7448 -18.874 75.8585 255 0 0
41.5723 15.6739 81.9771 255 0 0
80.0235 11.2186 271.369 255 0 0
-0.226138 0.323082 1.54287 255 0 0
-17.3003 -25.1661 77.024 255 0 0
-104.088 24.7569 173.018 255 0 0
27.6829 5.92733 366.61 255 0 0
-55.3813 -28.1667 129.892 255 0 0
79.0515 -19.9331 180.13 255 0 0
41.5501 -27.2101 131.833 255 0 0
65.5704 41.9877 235.667 255 0 0
31.7932 -21.0198 71.642 255 0 0
-3.2537 2.26665 6.53614 255 0 0
17.7678 -43.1095 210.375 255 0 0
-141.773 98.5859 344.151 255 0 0
-94.5614 -13.8653 180.661 255 0 0
0.31094 0.265311 2.09689 255 0 0
-2.26958 1.82306 5.03457 255 0 0
-1.86255 0.443391 4.40995 255 0 0
74.5702 21.1086 158.596 255 0 0
-123.463 55.0223 265.673 255 0 0
37.8142 -33.778 121.953 255 0 0
76.3802 48.0329 127.331 255 0 0
-122.744 98.5532 284.19 255 0 0
-162.454 80.4479 439.972 255 0 0
36.5394 -54.2884 394.822 255 0 0
103.421 3.23414 215.18 255 0 0
-116.654 49.2161 200.384 255 0 0
-106.994 89.8514 247.438 255 0 0
65.9867 18.6107 243.51 255 0 0
17.6704 17.6171 59.5719 255 0 0
2.83818 -23.8784 61.9823 255 0 0
-7.14236 8.16852 19.8041 255 0 0
-119.212 89.2699 243.119 255 0 0
-62.2898 -30.1377 164.902 255 0 0
78.3399 1.15202 291.224 255 0 0
-115.197 7.67789 258.192 255 0 0
-102.662 28.3834 200.805 255 0 0
-0.322927 -0.0133165 3.12983 255 0 0
-112.794 80.1536 269.194 255 0 0
-153.251 82.2372 367.427 255 0 0
78.553 50.6366 180.904 255 0 0
-138.714 135.524 405.091 255 0 0
-123.329 43.1701 279.477 255 0 0
-164.894 163.352 412.294 255 0 0
-0.113037 0.264051 1.20116 255 0 0
37.6992 4.49551 180.408 255 0 0
-18.0594 -28.0776 92.6233 255 0 0
-29.1249 -21.7769 56.4872 255 0 0
-93.7193 -10.864 434.689 255 0 0
-49.6095 -24.7605 104.325 255 0 0
-43.0518 -11.426 77.9918 255 0 0
4.96329 1.27898 9.50928 255 0 0
-172.633 49.1791 354.882 255 0 0
46.3149 13.943 83.0099 255 0 0
38.669 -25.723 67.517 255 0 0
38.1794 48.4166 261.821 255 0 0
83.342 -6.97755 260.085 255 0 0
36.7222 -27.5485 107.307 255 0 0
7.80419 1.11266 15.8898 255 0 0
-32.873 -24.6985 72.4827 255 0 0
-111.344 78.7965 271.708 255 0 0
-121.288 74.9133 225.092 255 0 0
69.1598 100.798 237.018 255 0 0
0.0295557 -0.248787 1.22085 255 0 0
32.3827 121.986 373.219 255 0 0
-48.7954 -21.083 84.9543 255 0 0
-26.323 -20.5405 52.2508 255 0 0
37.6205 -23.4287 101.479 255 0 0
79.0923 -17.9256 204.322 255 0 0
-110.544 37.9509 204.875 255 0 0
49.8817 -23.2582 123.811 255 0 0
-111.966 86.5434 226.839 255 0 0
41.0637 -18.138 71.6525 255 0 0
79.3769 48.7692 163.417 255 0 0
-126.943 26.7972 259.116 255 0 0
-117.468 39.5548 275.136 255 0 0
77.4065 24.7403 155.366 255 0 0
26.799 121.702 277.033 255 0 0
41.4097 -26.3724 131.536 255 0 0
-2.03357 -2.53323 9.8007 255 0 0
76.3284 32.2833 154.623 255 0 0
70.0318 -12.9924 298.372 255 0 0
-2.04938 1.86449 5.3746 255 0 0
-76.7813 -15.7837 133.635 255 0 0
-102.315 35.8086 185.899 255 0 0
-108.391 -24.0498 252.358 255 0 0
-43.747 -33.45 119.202 255 0 0
131.63 -15.268 262.215 255 0 0
-142.097 137.979 339.673 255 0 0
41.238 4.15939 266.634 255 0 0
-77.375 59.838 148.407 255 0 0
-52.4655 -20.7669 110.614 255 0 0
21.1126 12.3337 49.766 255 0 0
105.84 103.274 246.899 255 0 0
-76.3695 -39.0183 176.618 255 0 0
28.8909 -31.6163 137.489 255 0 0
62.8377 18.4808 272.758 255 0 0
-0.390966 0.751356 1.97366 255 0 0
69.4613 20.7991 218.159 255 0 0
74.2866 -33.0369 266.616 255 0 0
80.4793 51.094 182.447 255 0 0
95.1945 -3.89915 199.073 255 0 0
20.6744 18.7728 48.1531 255 0 0
76.0854 -19.0928 172.264 255 0 0
43.1187 -42.0231 161.553 255 0 0
67.1432 76.7398 442.379 255 0 0
90.2005 67.2933 192.092 255 0 0
70.1307 47.2992 374.032 255 0 0
247.12 172.954 453.5 255 0 0
54.2475 -2.2955 145.683 255 0 0
36.3445 -46.8351 250.972 255 0 0
