ply
format ascii 1.0
element vertex 1026
property float x
property float y
property float z
property uchar red
property uchar green
property uchar blue
end_header
4191 1533.57 8073.5 255 0 0
3684.68 -17199.1 45153.1 255 0 0
-1432.01 -12808.9 94855 255 0 0
-27318.8 20193.3 150624 255 0 0
-109987 88353.9 662345 255 0 0
325.241 -7275.85 67635.8 255 0 0
4196.32 1887.53 8008.03 255 0 0
-2037.7 -9841.52 83325 255 0 0
-23958.1 -10660.7 76571.7 255 0 0
4301.46 2004.7 8334.29 255 0 0
4357.49 2030.39 8441.36 255 0 0
3938.11 -5412.23 35621.7 255 0 0
-26502.1 -13275.3 84415.2 255 0 0
1168.46 -4616.45 73646.1 255 0 0
369.411 5204.8 29835 255 0 0
996.025 -4031.69 63765.3 255 0 0
889.174 -9778.06 55351.2 255 0 0
338.054 -11025.7 71763.8 255 0 0
40553.1 -9360.62 -202869 255 0 0
-21609.1 10499.8 186353 255 0 0
5417.98 -17154.5 41447.6 255 0 0
-19848.5 25297.8 166261 255 0 0
-4184.47 -3429.39 112035 255 0 0
4341.46 -9244.74 49652.4 255 0 0
4608.09 -13378 54310.7 255 0 0
3259.23 2763.48 13175.3 255 0 0
-2235.55 -5793.98 101803 255 0 0
5948.41 -14624.9 36756.8 255 0 0
3360.06 2922.09 13589.1 255 0 0
2188.11 -3148.16 56635.2 255 0 0
2146.99 -3071.97 54788.6 255 0 0
-33985.6 -14262.7 116976 255 0 0
7354.69 -9271.07 23389.3 255 0 0
3180.87 -2446.4 41073.6 255 0 0
-12010.9 -12277.5 29575.3 255 0 0
-4798.32 -3809.64 125071 255 0 0
2400.2 -10041.2 54160.7 255 0 0
3223.77 2911.55 13675 255 0 0
2394.64 -10989.4 59484 255 0 0
328.418 -9766.52 72311.8 255 0 0
-33669.9 9460.14 347872 255 0 0
-24391 -10459.4 84673.5 255 0 0
-19379.1 -8578.15 63292.1 255 0 0
-19073.7 5337.01 196778 255 0 0
1639.72 4239.9 24656.9 255 0 0
2187.04 -10023.3 53907.5 255 0 0
-1401.45 -4218.72 92278.7 255 0 0
-54200.5 476.934 222518 255 0 0
5.02494 -3966.83 73079.9 255 0 0
3659.73 -8002.19 42577.8 255 0 0
-18072.3 -10752.4 230125 255 0 0
-14958.1 14816.4 158959 255 0 0
6563.84 -8831.77 43471.1 255 0 0
4624.92 -3600.5 57202.3 255 0 0
3167.26 -3826.17 56777.2 255 0 0
3581.8 -2617.1 44920.1 255 0 0
6135.19 -5166.35 19405 255 0 0
4804.93 -12289.5 47286.1 255 0 0
5009.07 -6491.19 33123 255 0 0
3717.14 3356.96 15729.6 255 0 0
7355.53 -5245.85 26359.9 255 0 0
-27008.3 -13305.7 89339.1 255 0 0
4108.36 -7477.23 41864.2 255 0 0
4305.73 -7703.88 43409 255 0 0
-2064.62 -982.698 86783.2 255 0 0
3873.51 -15391.6 65698.1 255 0 0
3939.88 1697.57 8626.05 255 0 0
7494.09 -3262.94 23764.2 255 0 0
-32774.3 -5606.87 108866 255 0 0
-6718.28 2329.71 15817.8 255 0 0
-12821.2 -77.0369 142570 255 0 0
7138.97 -5087.43 25568.4 255 0 0
4377.38 1613.07 7903.23 255 0 0
-12128.1 65.1342 29947.3 255 0 0
2363.34 -13168.3 63856.9 255 0 0
3279.64 -6330.49 74084.3 255 0 0
3687.37 -5667.26 52382.4 255 0 0
8307.96 -23670.6 73303.6 255 0 0
6710.96 -5873.56 32188 255 0 0
7355.53 -4881.28 23973.2 255 0 0
5654.93 -15122.2 43655.5 255 0 0
-1191.87 -9452.95 86332 255 0 0
-16313.4 15782.5 97740.1 255 0 0
-6920.16 2395.84 16322 255 0 0
-26627.1 -4429.54 88778.6 255 0 0
6956.18 -6136.43 33498.6 255 0 0
4238.1 1547.97 7790.37 255 0 0
3321.18 -12814.9 62837 255 0 0
3861.68 -13288.3 31927.2 255 0 0
6770.82 -8860.04 32427.3 255 0 0
5264.6 -11144.2 39955.4 255 0 0
4037.04 1472.36 7425.96 255 0 0
4108.39 -15552.9 38998.1 255 0 0
-1226.85 7013.24 45772.2 255 0 0
-28190.8 -7834.46 93970.9 255 0 0
1154.9 -17169.4 67981 255 0 0
-7815.65 -4836.8 129675 255 0 0
5651.97 -8464.79 34354.9 255 0 0
5551.71 -8111.27 32406.6 255 0 0
6527.47 -8470.4 35344.6 255 0 0
-1163.24 -1582.29 85113.4 255 0 0
-4730.18 1609.61 8958.79 255 0 0
7149.11 -12062 28316.8 255 0 0
-43827.6 9802.16 469182 255 0 0
-11747.9 -11201.2 30484 255 0 0
3169.76 2474.56 14599.4 255 0 0
6724.34 -8470.77 33713.5 255 0 0
6505.13 -11383.9 36463.5 255 0 0
7492.31 -8226.36 24220.7 255 0 0
4149.14 -7358.03 53526.3 255 0 0
1219.06 -8935.16 72902.4 255 0 0
-211.529 5576.94 34646.9 255 0 0
5990.07 -10506 34010.9 255 0 0
6677.26 -10736 37963.7 255 0 0
2813.18 2619.13 15060.3 255 0 0
6195.09 -7139.33 15815 255 0 0
-11891.7 -12170.4 29616.1 255 0 0
7329.64 -13015.3 29162.8 255 0 0
7036.62 -8759.02 29665.3 255 0 0
-22173.9 3874.06 73541.8 255 0 0
-18727.7 -9576.1 55131.9 255 0 0
1193.88 -5297.42 56840.7 255 0 0
393.898 5610.16 34156 255 0 0
-26256.7 15377.8 179814 255 0 0
5798.94 -5055.37 33669.8 255 0 0
7434.25 -6476.4 31944.6 255 0 0
-16663.5 -11824.3 51844.8 255 0 0
6819.86 -12689.6 36789.3 255 0 0
7015.35 -7612.37 22702.7 255 0 0
1931.65 -8428.65 90284.9 255 0 0
7062.57 -4757.75 24996.9 255 0 0
-31441 14402.2 320311 255 0 0
-25370.5 21028.9 212674 255 0 0
-127.075 -2877.68 93113.7 255 0 0
5216.61 -13500.8 39309.6 255 0 0
-103304 60560.4 692745 255 0 0
-1105.17 -5856.92 91104 255 0 0
6353.53 -10968.2 29529.7 255 0 0
4479.33 -3017.87 29153.6 255 0 0
1197.54 -7806.97 86042.6 255 0 0
4909.73 -2179.95 8305.04 255 0 0
-2589.61 -10830.6 108115 255 0 0
3379.83 -7849.92 59489.7 255 0 0
-204094 25343 841926 255 0 0
-17688.8 -4422.49 50048.6 255 0 0
1669.86 -13564.1 94696.3 255 0 0
1657.48 40.9998 46008.9 255 0 0
4289.62 -2245.71 41766.6 255 0 0
3958.35 -10353.5 49960.2 255 0 0
3998.44 -20790 59356.4 255 0 0
1991.72 -11821.6 81851.6 255 0 0
6474.29 -2477.17 15926 255 0 0
1758.77 -13045.1 72600.6 255 0 0
7304.37 -4883.69 18041.7 255 0 0
-139442 58172.2 901998 255 0 0
1486.95 -19542.4 126065 255 0 0
4783.12 -785.333 23588 255 0 0
-61.5136 -2691.83 87013.7 255 0 0
-21979.4 -4957.94 72662 255 0 0
5515.93 -3968.14 31692.8 255 0 0
225128 -112140 -1.72228e+06 255 0 0
-340.312 -5949.74 82360.5 255 0 0
9540.51 -10844.8 30059.9 255 0 0
8704.39 -6677.87 17929.2 255 0 0
-12421.7 10855.7 65420.2 255 0 0
-19481 -7754.62 60549.9 255 0 0
-23030.5 -5741.12 64918.9 255 0 0
4030.59 -2678.89 26271.6 255 0 0
-6916.67 14451.2 94808 255 0 0
5466.94 -10034.3 36093 255 0 0
5570.13 -7138.89 40480.8 255 0 0
-12886.6 -7081.18 30058.6 255 0 0
350.755 -5713.37 68868.4 255 0 0
-149562 74237.8 1.04158e+06 255 0 0
-35459.7 -7016.85 128279 255 0 0
4036.24 2037.67 7147.6 255 0 0
5868.11 -925.038 15188.5 255 0 0
-19914.4 -3694.88 61537.4 255 0 0
-1139.94 -13144.6 104569 255 0 0
5845.8 -5311.21 34446.6 255 0 0
5559.56 -7905.43 42250.6 255 0 0
5239.05 -21552.6 47513.5 255 0 0
1218.84 -8931.54 72987.8 255 0 0
1.66676e+06 -555770 -6.22604e+06 255 0 0
-27769.9 28368.7 208910 255 0 0
-61651.5 -7990.1 238409 255 0 0
4077.93 2056.77 7219.64 255 0 0
7091.1 -9870.15 26621.4 255 0 0
7822.02 -9718.29 26794.8 255 0 0
-3419.45 -5591.55 118046 255 0 0
4520.98 -7093.02 50139.3 255 0 0
4922.26 -1888.25 29879.8 255 0 0
4151.89 1964.79 7714.82 255 0 0
-6019.71 1537.17 10158.3 255 0 0
-11678.6 -2543.64 25856.2 255 0 0
6629.86 -13241.6 39220.4 255 0 0
3723.88 2911.1 16602.2 255 0 0
-1513.36 8177.43 45679.8 255 0 0
7169.89 -13499 35629.8 255 0 0
5861.83 -12661.7 40594.9 255 0 0
-33852.1 -4437.68 131047 255 0 0
7375.21 -15049.4 38452 255 0 0
-35095 6092.37 148646 255 0 0
8349.38 -5514.14 16354.4 255 0 0
-2117.64 3019.27 10704.6 255 0 0
6830.06 -5932.17 33419.9 255 0 0
2611.8 2026.62 11722.8 255 0 0
5767.48 -9669.42 23147.4 255 0 0
4929.65 -9878.87 31097.2 255 0 0
4101.03 1948.31 7611.78 255 0 0
5548.14 -22244.8 56308.6 255 0 0
-18903.9 -1358.71 52451.9 255 0 0
4590.54 -1711.2 30045.9 255 0 0
6351.08 -1048.78 15486.5 255 0 0
4718.72 -10804.8 38789.1 255 0 0
7692.96 -14306.4 36127.6 255 0 0
-243.855 -8933.14 38392.1 255 0 0
4228.1 -7819.14 29381.3 255 0 0
3808.99 -12793.3 54622.8 255 0 0
-32123.5 2974.03 294376 255 0 0
6097.21 -12420.9 31815.9 255 0 0
7939.94 -3691.13 13900.7 255 0 0
4898.64 -2311.1 8616.12 255 0 0
7043.66 -16410.2 37871.3 255 0 0
-1153.45 1830.81 64086.9 255 0 0
6747.14 -4505.84 25028.3 255 0 0
4217.99 -2245.95 39228.4 255 0 0
-174.974 -1636.27 79624.6 255 0 0
5061.22 -1849.7 33086.9 255 0 0
-9702.76 -4106 121029 255 0 0
-21246.5 -6676.57 66136 255 0 0
6322.35 -12943.9 36991.5 255 0 0
6397.54 -16491 37177.1 255 0 0
6763.12 -4486.32 25070.1 255 0 0
-1417.13 2410.68 6419 255 0 0
7616.46 -9310.93 29943 255 0 0
-13205.8 8912.94 54184.3 255 0 0
-1601.9 2541.12 102432 255 0 0
4515.53 -957.974 8756.44 255 0 0
5765.33 -12191.1 41039.8 255 0 0
4927.92 -159.446 26184.9 255 0 0
7184.32 -5878.04 28739.1 255 0 0
-8913.51 4420.37 27428.1 255 0 0
4999.63 -2349.82 41979.9 255 0 0
-19150.7 -7691.31 54101.9 255 0 0
2406.21 -1310.24 53283.5 255 0 0
-13878 10797.2 60881.5 255 0 0
-3076.41 124 97652 255 0 0
10668.4 -8392.18 43246.6 255 0 0
-4956.23 1994.5 9375.73 255 0 0
5354.99 -2564.8 30786.9 255 0 0
7124.73 -9475.27 24323.9 255 0 0
5183.14 -13419.4 46733.3 255 0 0
-15772.7 7880.34 60146.3 255 0 0
2303.71 -10206.8 62038.7 255 0 0
3757.37 -12832 66610.1 255 0 0
6863.35 -5518.37 26861.1 255 0 0
-27780.1 -11182.1 78557.1 255 0 0
-12245.1 -7242.4 26602.5 255 0 0
-1395.01 2371.14 6327.63 255 0 0
6082.14 -8154.08 35392.3 255 0 0
3676.15 2132.57 9017.27 255 0 0
-35192.7 9186.75 147992 255 0 0
-11961.5 -5609.29 21115.3 255 0 0
3168.52 -5432.11 44622.3 255 0 0
3106.33 2209.79 12546.3 255 0 0
-14674.3 -4928.14 35378.3 255 0 0
-24261.2 -4923.65 262647 255 0 0
-20475.5 -987.719 62563.9 255 0 0
4165.91 1915.88 7198.29 255 0 0
4836.96 -2248.11 12200.7 255 0 0
5151.65 -2162.26 39389.8 255 0 0
5724.22 -10829.5 41670.9 255 0 0
5152.11 -1974.63 37618.5 255 0 0
-11052.9 -4462.22 20622.2 255 0 0
13679 -28564.3 95641.8 255 0 0
5220.3 -4839.33 46063.4 255 0 0
-11057.5 -1950.29 21952.1 255 0 0
2593.86 2620.02 14352.1 255 0 0
-1022.25 -15845 88469.5 255 0 0
7041.57 -6236.25 33011 255 0 0
5337.73 -13748.4 37672 255 0 0
5829.28 -13761.7 52216.6 255 0 0
-29215.6 -2980.38 110705 255 0 0
3842.61 2015.1 8004 255 0 0
-2214.4 8314.62 52573.7 255 0 0
-1721.37 2807.82 9077.92 255 0 0
4674.65 -2126.25 37239.9 255 0 0
2946.85 -9695.61 63042.2 255 0 0
801.386 -1519.45 80991.8 255 0 0
-12463.2 -8102.71 22918.1 255 0 0
3721.67 -7423.23 67201.4 255 0 0
7060.74 -8153.96 32811.8 255 0 0
-20189.5 -5099.25 62357.1 255 0 0
-12304.8 13070.5 122470 255 0 0
-14437.1 -4695.33 148495 255 0 0
-20841 -11851.3 60120.2 255 0 0
7721.9 -12729.2 34008.2 255 0 0
-7309.26 3677.1 27959.6 255 0 0
3975.8 -4168.77 40805.8 255 0 0
3796.56 -10100.8 59570.8 255 0 0
3694.88 2175.58 9752.31 255 0 0
6022 -3324.92 30376.5 255 0 0
-19264.4 -4169.94 69584.2 255 0 0
3492.97 2437.18 10602.3 255 0 0
3392.03 2848.38 15187.1 255 0 0
6356.44 -998.627 16641.4 255 0 0
4182.82 2447.53 7361.34 255 0 0
3697.11 2964.26 13329.3 255 0 0
6713.24 -1968.38 24476.5 255 0 0
5502.85 -1042.95 10398.5 255 0 0
5121.61 3900.09 22470.2 255 0 0
7902.96 -7762.44 22039.1 255 0 0
-6936.69 2192.17 15238.3 255 0 0
-12867.1 -8368.46 23655.2 255 0 0
-1992.93 2795.06 8985.88 255 0 0
-10199.3 -4107.86 19127.3 255 0 0
2155.64 -3171.25 66572.7 255 0 0
-449.841 1388.23 71944.1 255 0 0
7459.18 -5584.82 25751.1 255 0 0
6872.13 -7071.21 32175.9 255 0 0
5072.8 -21365.5 48944 255 0 0
-9642.74 6017.6 34731.9 255 0 0
-20026.2 -13148.5 66319.2 255 0 0
6756.31 -2524.22 16246.9 255 0 0
4951.95 -919.781 8910.83 255 0 0
-11483 -10939.6 31748.5 255 0 0
-1692.84 2819.02 9020.77 255 0 0
7727.25 -2410.68 20248 255 0 0
7681.19 -13599.8 37757.1 255 0 0
-34565.8 -2488.41 143606 255 0 0
-13076.2 -1504.03 29604.1 255 0 0
-8327.47 -1602.07 108700 255 0 0
7336.98 -4292.1 19732.4 255 0 0
-20734.3 -13525 62037.1 255 0 0
7060.49 -6816.23 27004.4 255 0 0
4862.14 -1654.84 28072.1 255 0 0
7482.71 -7921.88 23160 255 0 0
5807.98 -11046.7 33782.1 255 0 0
4548.36 -15550.7 41840.3 255 0 0
8189.34 -14218.3 40988.5 255 0 0
4955.86 -13404.5 44651.1 255 0 0
-28424.8 -9965.97 269818 255 0 0
-23646.9 -1626.04 98163.9 255 0 0
4976.45 -6879.28 48493.2 255 0 0
3120.03 2766.28 16524.5 255 0 0
-183982 -13862.2 648546 255 0 0
5481.66 -1036.5 10358.9 255 0 0
4506.08 -4383.06 39775.4 255 0 0
-4736.96 2129.29 8736.47 255 0 0
4768.48 -748.13 28139 255 0 0
4023.87 -8013.07 54756.1 255 0 0
7667 -6036.56 19051.7 255 0 0
-13678.1 -5329.63 32239.3 255 0 0
-25828.9 15155.8 115116 255 0 0
-22766.7 19839.4 137676 255 0 0
2173.88 579.257 15873 255 0 0
4569.97 -3847.83 37890.3 255 0 0
-10880.4 15964.1 97297.1 255 0 0
8091.35 -5789.61 16499.8 255 0 0
8604.98 1442.06 22800.9 255 0 0
-18079.3 41431.7 484989 255 0 0
4603.86 -2135.06 37534 255 0 0
6354.39 -1976.22 16641.4 255 0 0
-13890.3 -7919.27 28188.7 255 0 0
-13469.2 -13105.3 36541 255 0 0
-8462.94 -4818.21 24310 255 0 0
8282.42 36479.7 -631605 255 0 0
-25253.9 -9525.37 231129 255 0 0
10195.2 -14329.8 48287.3 255 0 0
4085.92 1994.69 7584.14 255 0 0
-722.468 298.669 106256 255 0 0
-12059.8 -7507.12 21690.9 255 0 0
6090.43 -16178.3 40688.4 255 0 0
-9470.08 -830.488 16451 255 0 0
-4848.53 2141.23 9077.59 255 0 0
-273363 103182 1.38203e+06 255 0 0
7478.45 -3520.16 21357.9 255 0 0
3333.62 -8704.97 47084.1 255 0 0
-4028.41 -11552.5 79913.3 255 0 0
4074.8 -5758.32 47526.2 255 0 0
-1796.75 2920.14 9856.99 255 0 0
7939.18 -6341.97 29120 255 0 0
3699.67 2164.99 9661.6 255 0 0
-15694.1 -6504.65 39687.9 255 0 0
-24693.5 19586 133434 255 0 0
-9018.87 5918.82 33327.3 255 0 0
7292.58 -3698.27 17551.7 255 0 0
4975.55 -7595.31 22316 255 0 0
154145 -108875 -1.08942e+06 255 0 0
-4269.86 3726.81 121805 255 0 0
-21431.1 -2233.8 65852.7 255 0 0
6918.42 -7235.2 32277.3 255 0 0
7183.4 -5864.75 26495.2 255 0 0
6463.37 2603.91 18993.6 255 0 0
7090.29 -3279.81 20390.5 255 0 0
6563.91 -1120.33 17648.9 255 0 0
3240.18 -10743 60694.5 255 0 0
-15922.3 -9135.27 42388.6 255 0 0
-4787.46 2107.46 8961.82 255 0 0
-51019.2 -5001.83 874444 255 0 0
7158.08 -11238.3 28723.4 255 0 0
-20015.3 -4716.08 59423 255 0 0
3200.17 -17477.6 55226 255 0 0
5870.58 -10888.6 43378.8 255 0 0
-1587.18 2548.35 7434.39 255 0 0
-296100 120248 1.63413e+06 255 0 0
8203.18 -5602.13 22693.5 255 0 0
4402.86 2782.08 13281.6 255 0 0
-19634.7 -1479.02 58777.9 255 0 0
6999.06 -14848.1 38987.1 255 0 0
5833.14 -1506.12 31910 255 0 0
-4742.13 1799.31 9035.3 255 0 0
4051.69 -720.741 28597.6 255 0 0
-14590 -7640 227727 255 0 0
-12797.4 -9993.18 28020 255 0 0
6783.06 -5031.8 33464.8 255 0 0
-13223.5 -8005.79 30013.7 255 0 0
6518.36 -5334.59 24062.6 255 0 0
5377.19 -906.376 12930.1 255 0 0
6399.38 -10939.9 31478.1 255 0 0
-4573.68 10168 59735.1 255 0 0
-22184.8 -3126.98 69790.9 255 0 0
-12899.5 -12615.4 35088.2 255 0 0
5444.77 -2934.11 29930.4 255 0 0
8388.94 -9075.27 35711.1 255 0 0
6453.16 -9520.85 34886.2 255 0 0
4272.89 -10130.5 47238.6 255 0 0
-14078.6 -8301.11 35848.8 255 0 0
7138.76 -4724.74 20297.4 255 0 0
-15606.2 -6240.25 37254.9 255 0 0
-9080.55 5356.31 28725.2 255 0 0
7732.48 -10463.5 32644.3 255 0 0
7626.48 -4387.38 21626.8 255 0 0
5886.68 -1734.49 19839.6 255 0 0
4345.17 2740.89 13197.8 255 0 0
10198 -6975.95 28142.9 255 0 0
6354.44 -1960.16 24292.4 255 0 0
-18580.5 -8781.57 54773 255 0 0
-15208.8 -2349.54 36307.7 255 0 0
3856.79 -7287.44 44806.2 255 0 0
2644.39 3929.31 16189.1 255 0 0
-13699.4 -2905.56 32773 255 0 0
5858.32 -1600.6 24387.4 255 0 0
2651.41 2788.29 15856.2 255 0 0
4524.7 -2643.49 39814.8 255 0 0
-15110.3 -9932.83 25498.8 255 0 0
-4438.98 2145.76 12380.7 255 0 0
4780.55 -4694.38 42124.1 255 0 0
-29719.7 -2621.41 449615 255 0 0
-3948.89 9314.59 68495.2 255 0 0
-17689.4 -8417.32 192682 255 0 0
-12029.9 -2609.02 25431.6 255 0 0
4197.79 -5228.25 41341.6 255 0 0
7349.47 -3610.32 27764.8 255 0 0
-75957.3 26382 320105 255 0 0
4573.56 -6312.43 38244.7 255 0 0
7854.57 -5633.15 24011.1 255 0 0
-8466.83 -9056.08 129716 255 0 0
-22043.4 -288.795 71815.5 255 0 0
7961.42 -9508.33 27914.6 255 0 0
8214.63 -12604.5 29254.8 255 0 0
-3043.49 7098.84 54213.8 255 0 0
-5023.16 -13439.4 92357.4 255 0 0
6064.81 -2042.43 14992.2 255 0 0
1457.04 6783.49 35096.1 255 0 0
7578.94 -5152.08 23268.7 255 0 0
4465.2 -626.143 30991.5 255 0 0
-12926.9 -8484.46 21799.5 255 0 0
861.449 -810.993 31460.2 255 0 0
9199.85 -6239.71 28206.1 255 0 0
-2672.09 -7873.93 88290.8 255 0 0
-9790.41 8733.64 177355 255 0 0
6959.17 -7838.21 18138.4 255 0 0
7225.55 -7708.8 18821.2 255 0 0
35553.5 -50084.3 116623 255 0 0
-3520.77 8734.26 61272.4 255 0 0
-12849.1 13111.9 77172 255 0 0
-21090 -420.057 66143 255 0 0
-5427.88 1551.05 9497.73 255 0 0
9062.96 619.733 16062.8 255 0 0
-606.144 -7372.87 67936.5 255 0 0
3571.25 2935.31 11570.6 255 0 0
3488.64 -2595.85 38264.7 255 0 0
8291.81 1022.94 21778.5 255 0 0
-10969.7 -2063.51 20489.5 255 0 0
7887.35 -5247.64 24321.8 255 0 0
6376.21 -1861.59 16319 255 0 0
-21252.4 -10109.8 62260.4 255 0 0
2885.57 294.628 46202.7 255 0 0
3822.73 3148.07 16316.4 255 0 0
-23946.9 -6000.62 84266.7 255 0 0
-155779 84088.3 705501 255 0 0
7010.2 -1274.62 16493.3 255 0 0
-7384.28 12449.5 75901.9 255 0 0
697.732 -18202.2 77272.6 255 0 0
-103122 34268.1 417435 255 0 0
7567.45 -5067.14 12775 255 0 0
3455.54 3497.69 13020.9 255 0 0
-10819.9 -2574.16 20085.6 255 0 0
7309.61 -2219.43 22790.7 255 0 0
-4842.9 1953.46 8915.62 255 0 0
3669.13 2304.28 9685.57 255 0 0
-17270.4 -2955.62 59508.2 255 0 0
-4727.15 1559.21 9171.93 255 0 0
-146.704 5933.7 33159.6 255 0 0
-15546.5 -6444.39 39313.3 255 0 0
7619.75 -8023.72 18930 255 0 0
8071.99 -5400.65 14067 255 0 0
-2690.44 9093.69 51879.4 255 0 0
4698.42 -3355.07 36375.6 255 0 0
2713.98 392.228 291686 255 0 0
5990.63 -1636.69 11386.5 255 0 0
-32295.1 -237.953 120695 255 0 0
-7838.74 11841.3 84811.9 255 0 0
7501.83 -3197.6 17508.7 255 0 0
7849.67 -14974.8 73987.5 255 0 0
4419.59 -5809.58 62951.3 255 0 0
-21951.6 -9935.86 67600.9 255 0 0
-11957.8 -4538.59 27034.5 255 0 0
1259.54 574.618 66519.3 255 0 0
7681.5 -8931.91 25026.6 255 0 0
-1772.65 3566.77 94732.3 255 0 0
-30043.2 -3090.88 112343 255 0 0
-2992.8 11260 64012.8 255 0 0
-9695.52 5883.72 36819.8 255 0 0
4877.01 -6163.7 39420.3 255 0 0
6440.9 -1863.56 33819.7 255 0 0
3335.73 7036.93 38603.9 255 0 0
8135.1 -9398.86 25388.9 255 0 0
-5392.18 2836.94 10058.7 255 0 0
-22686.9 29633.5 227062 255 0 0
3978.25 -4676.44 49764.6 255 0 0
9103.2 824.735 18529.1 255 0 0
7822.62 1645.37 20597.2 255 0 0
9143.72 846.912 18587.4 255 0 0
-3125.63 -11569.5 83829.9 255 0 0
7043.36 -1367.03 18829.6 255 0 0
6261.61 1896.22 15867.3 255 0 0
-29611.6 11564.6 152730 255 0 0
-9558.72 -682.766 141606 255 0 0
3491.44 2551.07 10075.9 255 0 0
8002.39 -315.182 18361.9 255 0 0
-21601.4 2178.52 72404.3 255 0 0
6606.14 -2056.14 20495.5 255 0 0
-10967.6 -4157.21 24999.2 255 0 0
7794.45 -2641.29 16549.3 255 0 0
-12983.4 -7812.16 30699.7 255 0 0
5565.53 -15078.6 39448.4 255 0 0
9903.35 -7600.77 19132 255 0 0
-11332.2 -915.686 24944.1 255 0 0
2243.58 4681.05 26187.9 255 0 0
-4830.8 1779.46 9141.43 255 0 0
-2768.11 10248.7 75740.3 255 0 0
7026.1 -7739.42 17483.7 255 0 0
-11261.5 -3963.6 88548.2 255 0 0
4042.25 -14574.1 32223.4 255 0 0
7597.63 -5622.66 24619.5 255 0 0
3636.54 3117.58 10050.1 255 0 0
7396.85 -2770.62 16064.5 255 0 0
405.401 6365.46 32312 255 0 0
8243.72 -6868.77 21569.9 255 0 0
-4910.97 -62067.9 367806 255 0 0
7499.15 -2916.58 16259.2 255 0 0
-5264.92 2518.63 14715.8 255 0 0
-15045.8 -5920.08 39733.5 255 0 0
-1406.77 -18151.3 93550.9 255 0 0
5867.43 -16381.7 41682 255 0 0
4082.41 2723.26 7461.88 255 0 0
-14342.2 -1327.53 34104.1 255 0 0
4328.05 1897.96 7252.44 255 0 0
-5732.12 -11445.8 79685.7 255 0 0
7994.09 -9011.94 23507.8 255 0 0
-2282.37 3027.49 10092.1 255 0 0
8960.14 -8179.3 25199.4 255 0 0
-6108.19 -21826.2 116505 255 0 0
8967.56 -8284.74 25508.5 255 0 0
-418.018 -576.346 73985.3 255 0 0
-11882 710.419 175344 255 0 0
-18964.4 -10238 51465.5 255 0 0
-10857.2 -2966.91 137775 255 0 0
4336.76 2889.21 7918.35 255 0 0
7315.12 -3085.93 17345.2 255 0 0
366.774 6293.49 31822.4 255 0 0
5504.51 -11687.7 35094.1 255 0 0
-5766.66 3043.51 10696.1 255 0 0
-32039.6 -6105.05 130717 255 0 0
3911.18 2574.9 7594.02 255 0 0
-15512.8 -1091.49 38452.6 255 0 0
700.289 -12435.9 67588.1 255 0 0
-21745.2 2379.86 67940.2 255 0 0
1445.05 4573.95 22845.8 255 0 0
20481.9 18889.4 -345939 255 0 0
-62831.1 -16708.3 245846 255 0 0
6280.24 -8526.17 34121.4 255 0 0
3199.66 676.406 44939.6 255 0 0
1523.37 -20832.6 76957.4 255 0 0
-11066 1944.19 19567.7 255 0 0
5234.66 -7873.91 47658 255 0 0
-4935.33 1670.55 8941.03 255 0 0
7339.99 -594.805 17364.4 255 0 0
-145936 120944 956014 255 0 0
-6335.68 -5741.99 107193 255 0 0
2886.98 2751.76 12354.6 255 0 0
3942.27 2325.83 7869.24 255 0 0
940.292 5373.89 26937.1 255 0 0
-17129.2 3408.6 56413.2 255 0 0
6787.54 -1834.78 17583.5 255 0 0
-14810.7 -5414.05 36408.6 255 0 0
-2958 28273.5 157462 255 0 0
-13034.5 -10016.4 23397.8 255 0 0
56822.2 -24204.4 -304006 255 0 0
5477.86 -1914.34 24063.3 255 0 0
1568.42 510.685 37091.2 255 0 0
6449.49 -5928.92 27529.1 255 0 0
4601.72 -4582.1 37676.5 255 0 0
8592.7 1002.23 20022.5 255 0 0
3919.04 2772.7 8131.51 255 0 0
-7576.2 -1131.07 33797.7 255 0 0
-14028.1 -10671.1 25193.9 255 0 0
-24759.8 5717.72 81927 255 0 0
-10966.9 8076.91 44208.1 255 0 0
6391.33 -3774.21 15916.5 255 0 0
-12597.6 -7595.88 26397.2 255 0 0
-12592.4 -6667.33 29888.4 255 0 0
-14230.6 -10033.9 32666.4 255 0 0
7437.21 836.995 17348.7 255 0 0
8539.33 -7659.27 16966.8 255 0 0
-33880.1 -3898.33 152077 255 0 0
-4579.25 3979.1 27401.3 255 0 0
-237352 -38713.1 1.06702e+06 255 0 0
4745.64 -18387.4 54377.1 255 0 0
483.448 5954.96 30014.4 255 0 0
-23645.8 621.108 70125 255 0 0
-14411.9 2936.67 43268 255 0 0
5548.03 -13297.7 44604 255 0 0
9419.5 -6541.96 23745.3 255 0 0
4555.27 -1150.56 8332.44 255 0 0
3519.51 2113.92 9889.28 255 0 0
1577.26 4463.45 24434.5 255 0 0
-16713.9 -2387.78 38829.1 255 0 0
964.703 -21462 80658.7 255 0 0
3703.52 2580.64 10829.1 255 0 0
-11249.5 -1369.47 22487.7 255 0 0
1407.29 -16121.8 71625.5 255 0 0
1617.49 4264.61 27902.9 255 0 0
8354.82 -4133.47 18165.1 255 0 0
3390.52 2588.74 18239.1 255 0 0
-10902.9 -1899.77 19211.4 255 0 0
-11607.8 -8096.42 20881.6 255 0 0
6129.63 -6632.04 35477 255 0 0
-422.636 -9535.98 82390.5 255 0 0
-10056.9 -2678.6 17347.1 255 0 0
-12618.4 -7386.77 22058.2 255 0 0
3968.64 2240.81 7492.26 255 0 0
4110.46 -4931.32 58823.7 255 0 0
-21494.3 -18554.5 62545 255 0 0
3638.46 2571.24 7575.45 255 0 0
2594.57 2898.74 15000.6 255 0 0
6299.88 -1731.88 15357.6 255 0 0
6749.75 -2682.06 31791.5 255 0 0
4263.6 2290.6 8826.4 255 0 0
-9127.07 3705.02 26159.3 255 0 0
-13241.1 -12434.3 29777.6 255 0 0
-9555.05 -4449.48 22748.9 255 0 0
7454.53 -71287.1 311263 255 0 0
7451.16 -4004.55 22264.5 255 0 0
7387.98 -3941.19 20496.9 255 0 0
6208.16 -1743.8 24273.2 255 0 0
-16660.9 1629.67 50020.4 255 0 0
7409.57 -4247.61 20336.4 255 0 0
-5003.17 1918.6 9361.7 255 0 0
1265.96 -16324.4 70766.6 255 0 0
1968.99 -15501.1 47731.1 255 0 0
3450.8 3065.53 10401.9 255 0 0
-7829.34 3552.45 22493.7 255 0 0
-12130.9 -6501.33 21379.9 255 0 0
-12333.8 -3512.66 25228.1 255 0 0
4438.11 -1705.34 39881.8 255 0 0
4931.75 3077.47 16308.1 255 0 0
6683.29 3943.62 25941 255 0 0
-13755.2 -4194.53 33678.9 255 0 0
4682.65 -1139.16 8279.99 255 0 0
9958.71 -8955.48 27644.1 255 0 0
-10445.4 -635.05 19637.4 255 0 0
9778.03 -7453.93 19009.8 255 0 0
-11815.3 -9169.07 22403.1 255 0 0
6585.49 -6396.39 26815.6 255 0 0
7491.15 -4284.86 15695.6 255 0 0
3758.5 -13771.8 39214.2 255 0 0
9255.12 -5982.47 19298.7 255 0 0
9363.55 -3440.38 32561.9 255 0 0
5333.26 -13297.4 47867.8 255 0 0
8739.79 -3555.94 18483.3 255 0 0
-3990.01 7144.29 41868.4 255 0 0
4584.22 -325.357 28883.1 255 0 0
-16331.9 -7981.4 40596.3 255 0 0
-12664.9 -3679.33 26024.3 255 0 0
7694.97 -7604.57 24062.5 255 0 0
4190.9 1696.77 7671.59 255 0 0
6057.93 -1624 14540.8 255 0 0
4586.16 2796.04 13090.9 255 0 0
4269.32 1821.84 7732.92 255 0 0
-1833.06 2717.81 8922.14 255 0 0
-10806.9 -1984.74 18347.2 255 0 0
5460.37 3214.69 21236.5 255 0 0
38441.2 64352.8 -424045 255 0 0
8387.74 -9396.69 25099.1 255 0 0
6611.08 -7327 23370.5 255 0 0
4648.53 -23225.2 79274.8 255 0 0
7088.49 -2557.75 18923.5 255 0 0
8873.46 936.359 19272.7 255 0 0
6306.77 2263.84 15953 255 0 0
1504.3 5468.05 26537 255 0 0
5800.11 -5716.84 33064.9 255 0 0
-4676.08 -13061.9 118456 255 0 0
4060.28 -959.172 7193.43 255 0 0
6217.04 -19920.2 55226 255 0 0
6408.23 -1732.89 15445.9 255 0 0
-11528.8 -1446.31 24316.7 255 0 0
5767.79 -5202.93 22772.4 255 0 0
6462.59 -13208.7 33911.8 255 0 0
-13089.9 -5554.22 31521.9 255 0 0
2929.53 3018.68 14651.8 255 0 0
-30376.4 -4706.27 96903.4 255 0 0
3617.5 -1957.23 44819.9 255 0 0
4059.77 1679.01 7173.37 255 0 0
7604.41 -5614.13 24839.8 255 0 0
4140.59 -551.63 32318.3 255 0 0
-29114.5 -7002.18 86931.6 255 0 0
-14231.3 -5335.06 30495.9 255 0 0
-31812.1 17493.2 126868 255 0 0
-154.977 8494.08 62576.5 255 0 0
-5359.31 -14866.5 75187 255 0 0
-15183.2 -3194.67 39589.5 255 0 0
6823.7 -6954.62 26597.2 255 0 0
-16900.6 -9430.19 40209.5 255 0 0
-5435 1474.26 9659.37 255 0 0
-13477.2 -7162.45 34354.4 255 0 0
8433.21 -13119.1 29447 255 0 0
-17178.2 -7138.54 47503.5 255 0 0
-13004.4 -7642.11 22630.7 255 0 0
8446.55 -4676.16 17733.8 255 0 0
2798.75 2900.08 14033.7 255 0 0
-13760.5 -8780.06 23972.6 255 0 0
17826.9 -15697.1 610696 255 0 0
6939.77 -8356.45 27958.2 255 0 0
-11444.5 -12054.3 26753.4 255 0 0
7930.97 -2737.87 15534.9 255 0 0
6220.81 -5512.58 24377 255 0 0
3145.06 2294.71 15245.2 255 0 0
7385.13 -3896.22 19357.9 255 0 0
7527.19 -2551.26 15457.7 255 0 0
-15846.9 20272.8 142627 255 0 0
-8468.21 5529.54 28450.2 255 0 0
3259.94 3530.4 13782.6 255 0 0
-2283.59 -4829.81 42644.9 255 0 0
-22546.2 3339.31 77419.1 255 0 0
2915.69 3164.2 12353.5 255 0 0
-72409.6 41499 503725 255 0 0
-13552.3 -10491.9 24084.8 255 0 0
-10573.4 5541.38 37048.8 255 0 0
-11168.8 -2487.7 21284.5 255 0 0
-25617.9 244.922 80502.3 255 0 0
-6499.15 9844.61 156198 255 0 0
4577.62 -9872.63 49673.2 255 0 0
5218.01 -15342.7 38079.8 255 0 0
-14047.3 -724.424 34689.4 255 0 0
-13335 -3992.83 26438.7 255 0 0
4466.89 -100.288 28167.4 255 0 0
8637.34 1703.9 18946.5 255 0 0
3770.07 2950.05 9906.22 255 0 0
3701.32 -4350.88 -22414.8 255 0 0
6803.99 2875.47 17280.5 255 0 0
-27963.8 1216.47 96453.1 255 0 0
-40393.2 17746.6 168659 255 0 0
6578.77 1155.33 18690.6 255 0 0
-15628.5 -7354.34 38082.1 255 0 0
-5329.73 2195.64 9200.46 255 0 0
-21641 -7933.73 57989.5 255 0 0
-21819.6 13336.3 167626 255 0 0
-16156.3 935.574 43904.1 255 0 0
-26543.5 77.5987 83291.6 255 0 0
8466.18 -3319.44 17531.1 255 0 0
-18202.2 -8361.28 44565.7 255 0 0
-8220.73 5824.63 29658.4 255 0 0
6826.13 -2855.93 17093.9 255 0 0
2774.72 1531.45 6391.8 255 0 0
-13038.3 -11062.2 24778.3 255 0 0
-22278 8307.85 69413.5 255 0 0
-19965.4 -1946.25 59202.6 255 0 0
7224.12 -3579.05 20028.7 255 0 0
-16470.3 -814.164 40774.4 255 0 0
-13273.9 -5560.37 27294 255 0 0
8137.77 -7958.53 21264 255 0 0
-443.877 6340.49 34207.2 255 0 0
-11135.6 -5185.99 20237.8 255 0 0
2628.76 -20158.6 70742.5 255 0 0
8156.27 -2650.07 17312.2 255 0 0
-66640.6 9722.82 290869 255 0 0
6114.21 -10576.2 38684.3 255 0 0
-16492.3 -2786.6 48034.9 255 0 0
-7431.09 3057.66 21793 255 0 0
-12412 -4567.75 21300.2 255 0 0
-4695.98 1892.55 8090.24 255 0 0
9057.19 962.189 19911.4 255 0 0
4642.22 -2206.07 7865.95 255 0 0
-20883.3 952.987 72010.7 255 0 0
-507.39 -9391.42 79292.5 255 0 0
-1990.37 3356.85 57223.4 255 0 0
-12834.7 -8937.08 22780.6 255 0 0
6615.9 -1458.33 16216.7 255 0 0
-4781.62 2236.64 8697.29 255 0 0
7547.94 -1529.69 15818.2 255 0 0
6565.21 -1690.21 17638.5 255 0 0
-7097.29 1755.26 13408.2 255 0 0
-12717.8 -8920.51 22211.7 255 0 0
5791.75 -1420.47 10216.3 255 0 0
-10424.8 -1664.94 17842.5 255 0 0
6044.38 -1390.63 13221 255 0 0
-6808.09 1584.97 11394.5 255 0 0
6265.22 -2207.07 26717.1 255 0 0
-12824.2 -8979.25 28480.1 255 0 0
5777.16 -1443.54 27472 255 0 0
1173.76 -14848.4 52481.8 255 0 0
-10942.4 -2453.34 22774.7 255 0 0
-18171.9 -5900.46 51872.9 255 0 0
7184.16 2381.4 28284.8 255 0 0
45031.3 -14409.9 -218726 255 0 0
-12587.5 -5567.89 20991.7 255 0 0
-2227.23 -15754.3 85408.2 255 0 0
-24102 5563.01 75280.1 255 0 0
-12417.5 -4003.33 24890.2 255 0 0
-6923.31 437.253 21282.7 255 0 0
6516.07 -660.621 17129.6 255 0 0
-13445.3 -9132.58 22173.7 255 0 0
4878.77 2787.11 11323.1 255 0 0
8050.81 -7074.37 32421.2 255 0 0
7345.8 -3839.01 29611.2 255 0 0
-5178.26 1634.14 10041.7 255 0 0
8283.85 -7761.67 25422.9 255 0 0
9010.2 -9492.92 25503.4 255 0 0
7802.59 -9322.97 35998.1 255 0 0
-26849.3 14184.9 106546 255 0 0
3195.57 2128.92 6716.96 255 0 0
7233.41 -8366.87 28985.6 255 0 0
-13741.9 -8394.07 22876.4 255 0 0
6750.63 -6829.48 17170.2 255 0 0
-13570.8 -6001.96 29729.9 255 0 0
5536.63 -3433.82 10382.3 255 0 0
8132.75 1545.96 18238.9 255 0 0
-26080.8 11319.6 80894.5 255 0 0
-36987.2 11623 128571 255 0 0
-16275.4 -2010.86 39472.8 255 0 0
9202.48 -9537.46 25697.6 255 0 0
2081.09 5892.27 31345.3 255 0 0
2029.72 -18734.8 69367.1 255 0 0
7248.75 -1081.88 22823.3 255 0 0
6541.91 -10931.4 40159.6 255 0 0
6505.38 -2633.86 16543 255 0 0
2966.21 2948.52 12385.7 255 0 0
-20177.1 7428.07 69564.7 255 0 0
-16449.1 -7647.17 45364.5 255 0 0
-7041.74 1862.81 12478.7 255 0 0
-13730.1 -11643 39245.1 255 0 0
4461.15 -145.681 25349.3 255 0 0
-71884.8 -17346.3 275855 255 0 0
8602.37 7.25448 18200.7 255 0 0
-12882.7 -3613.09 25638.5 255 0 0
-12236 -5412.83 26786.8 255 0 0
42089.8 -40465.9 -276867 255 0 0
-11933.6 -2934.03 25910.5 255 0 0
-12974.1 -8804.32 27346.2 255 0 0
-4646.19 1796.91 9107.53 255 0 0
7983.17 -11880.7 30553.3 255 0 0
-6082.32 2249.57 15914.6 255 0 0
-918.913 -18283.8 77908.3 255 0 0
-1676.72 2606.73 8089.4 255 0 0
-5723.12 1471.91 10208.4 255 0 0
-2249.5 -13384.8 73107.8 255 0 0
4132.65 2764.98 8729.25 255 0 0
8042.44 -5524.9 14132.3 255 0 0
-13618.1 8682.23 55579.8 255 0 0
-5658.93 2307.39 12493.2 255 0 0
6882.2 -1318.24 21735.5 255 0 0
-24924.7 23787 320558 255 0 0
-13163.2 -7071.17 28316.9 255 0 0
3697.53 1948.27 7969.87 255 0 0
2372.71 -2098.86 75107.6 255 0 0
6488.86 -2554.75 16450.7 255 0 0
8626.71 -2805.23 35344.4 255 0 0
-23091.6 -11142.3 64578.8 255 0 0
-10786.4 -4088.68 20894.5 255 0 0
7320.56 -8257.79 35354.7 255 0 0
4611.72 3195.1 17028.6 255 0 0
3760.72 2512.85 7954.88 255 0 0
-33404.3 -5661.46 97472.3 255 0 0
5821.03 -1419.46 15105.9 255 0 0
4669.1 -1112.67 23959 255 0 0
59690.6 128141 -626048 255 0 0
17835.1 9157.42 -110347 255 0 0
-20194.4 16924.4 86412.8 255 0 0
-7161.89 13520.3 80463.2 255 0 0
11216.4 -16341.7 39012.1 255 0 0
-18378 -9754.01 51300.2 255 0 0
-13912.9 -6816.65 33392.6 255 0 0
-11832.7 -7775.53 26990 255 0 0
9083.38 -4597.77 17988.8 255 0 0
3693.39 2468.53 7922.31 255 0 0
-8579.58 1139.88 26997.6 255 0 0
9936.62 -9186.15 27140.1 255 0 0
-13891 -12272.2 42780.4 255 0 0
2087.62 505.492 22421.2 255 0 0
6800.89 -1126.36 21366.9 255 0 0
-12156.7 -11697.9 29397.9 255 0 0
4401.1 -8677.03 43252.9 255 0 0
-12745.4 -6573.68 22974.8 255 0 0
-11722.1 -4282.38 21148.6 255 0 0
492.665 -8552.9 41965.1 255 0 0
-14219.6 -7194.8 31145.8 255 0 0
-6118.41 3764.8 16554.9 255 0 0
-7199.94 -3639.22 17106.4 255 0 0
-6023.02 2407.38 14920.4 255 0 0
-13568.1 -6797.97 29836.8 255 0 0
7282.88 -2976.21 14482.7 255 0 0
6262.66 -4269.34 24708.9 255 0 0
-32774.1 5215.74 131615 255 0 0
-12389.2 -6337.58 27059.8 255 0 0
7052.94 1856.99 18862.9 255 0 0
-10292.1 -920.108 18615.2 255 0 0
-14519.8 -827.553 33740.9 255 0 0
-12029.5 -8012.09 25205.1 255 0 0
5884.65 -2384.74 14756.8 255 0 0
-34612.6 -7889.33 121864 255 0 0
4795.53 2782.52 14697.1 255 0 0
5671.17 -5324.05 37772.5 255 0 0
-10617.3 -1004.51 20196.1 255 0 0
8389.28 -2803.83 16352 255 0 0
9077.97 -876.535 18594 255 0 0
-11856 -3100.85 24439.3 255 0 0
4957.56 3717.26 30824.7 255 0 0
3053.29 -15647.9 64123.2 255 0 0
-14863.5 -12548.9 44933.9 255 0 0
4041.9 1742.4 7600.6 255 0 0
3915.47 2438.77 7676.68 255 0 0
-11786.8 5810.51 42206.2 255 0 0
-7716.27 2170.21 16393.6 255 0 0
8036.91 -1394.21 18392.5 255 0 0
7215.67 -10918.3 -221489 255 0 0
-5277.45 1778.44 9290.45 255 0 0
8013.39 -11361.6 36095.6 255 0 0
-12869.5 -6664.96 23231.9 255 0 0
-14991.9 -10509.5 26202.2 255 0 0
10012.9 -14702.5 36244.8 255 0 0
6183.69 -1400.04 15984.6 255 0 0
9123.87 -897.894 18674.9 255 0 0
8009.73 -11434 36235.3 255 0 0
-6834.65 4600.7 21367.1 255 0 0
3786.96 2358.97 7428.52 255 0 0
6695.65 -4245.1 16896.2 255 0 0
10900.1 -14430.2 34537.3 255 0 0
-20838.4 -2549.8 57470.3 255 0 0
-33273.6 2494.31 122103 255 0 0
5908.48 -5598.16 41167.3 255 0 0
6983.62 -1201.65 15951.8 255 0 0
5741.52 13705.8 -96737.8 255 0 0
5774.75 -11179.9 38962.1 255 0 0
-4942.13 2968.62 12615.7 255 0 0
8433.07 -3134.42 17336.1 255 0 0
-5906.36 -3203.77 -13182.5 255 0 0
-13557.7 -12318.5 37472.4 255 0 0
-12300.4 -4608.12 24726.2 255 0 0
3644.31 4001.57 16253.9 255 0 0
-11100.7 -4906.61 20382.9 255 0 0
-9834.24 -967.438 17664 255 0 0
-2798 5804.3 83436.7 255 0 0
-13645.1 -8242.83 31846 255 0 0
-11061.2 -4496.73 23476.8 255 0 0
-36534.3 -23.1465 104816 255 0 0
1998.3 4085.08 24663.5 255 0 0
3829.29 5089.75 32348.6 255 0 0
5999.34 -6042.45 37553.2 255 0 0
3314.31 2736.27 10356.6 255 0 0
8711.35 -799.601 19064.2 255 0 0
7927.6 -2957.1 15627.1 255 0 0
5678.81 -3617.34 38134.6 255 0 0
7196.23 -950.012 29977.2 255 0 0
771.638 5130.44 26542.1 255 0 0
-6119.91 2495.84 13918.5 255 0 0
-15780.2 -8536.56 39145.2 255 0 0
-10927 -1725.03 20288.5 255 0 0
-4903.81 1879.14 10222.5 255 0 0
-4133.78 1109.99 7899.67 255 0 0
350.231 -3159.89 65857.9 255 0 0
6338.36 2485.04 15768.2 255 0 0
8383.57 -6375.68 16712.2 255 0 0
-72921.4 10148.3 256903 255 0 0
-4975.18 1822.54 8907.33 255 0 0
8663.84 -777.991 18977.4 255 0 0
8090.01 -5120.44 14817.7 255 0 0
2891.31 -21528 74897.5 255 0 0
-12462.1 -6401.19 27176.1 255 0 0
-8959.66 16.499 112821 255 0 0
7783.49 -2532.68 17299.5 255 0 0
7507.56 -5591.81 19502.9 255 0 0
2666.78 4291.36 23206.4 255 0 0
-30253.2 10764.5 108232 255 0 0
-13360.5 -3610 28745.1 255 0 0
-10307.9 -4910.73 20347.2 255 0 0
-10221.3 -9004.82 31429.6 255 0 0
-9862.76 -6890.79 21209.8 255 0 0
1732.33 3756.88 15000.2 255 0 0
1135.75 -10623.7 39692.4 255 0 0
-17871.2 1267.02 50874.7 255 0 0
8921.55 -158.148 17576.6 255 0 0
-1400.89 2349.11 6499.21 255 0 0
7186.66 -3051.7 14039.4 255 0 0
6760.59 -4312.33 26008.5 255 0 0
6600.47 -4097.96 16270.9 255 0 0
3476.72 -9092.01 57425.2 255 0 0
913.767 -9049.11 31672.6 255 0 0
-13464.7 -8681.41 31207.5 255 0 0
8293.26 -2852.02 30921.3 255 0 0
-4908.37 1074.72 9866.56 255 0 0
8137.21 -5588.41 24491.7 255 0 0
-6663.86 4336.23 20893.8 255 0 0
