ply
format ascii 1.0
element vertex 1442
property float x
property float y
property float z
property uchar red
property uchar green
property uchar blue
end_header
-3.08701 1.57564 6.62552 255 0 0
-27.1169 -18.7422 49.6859 255 0 0
188.181 -62.1623 342.233 255 0 0
-0.496446 0.635807 2.84868 255 0 0
70.487 -31.8424 142.058 255 0 0
-23.7406 -19.8901 55.2817 255 0 0
60.8029 -67.8899 406.042 255 0 0
74.3449 12.6709 219.776 255 0 0
-113.153 -7.16735 483.67 255 0 0
-82.9385 58.556 169.301 255 0 0
-0.576202 0.847986 2.48018 255 0 0
-6.45661 -19.3282 106.619 255 0 0
36.6718 -23.2108 92.8002 255 0 0
-0.0615025 0.303063 1.43014 255 0 0
54.7952 -34.6277 137.924 255 0 0
50.6098 -30.7157 124.473 255 0 0
-27.3662 -20.2157 49.6075 255 0 0
-29.9459 -29.0442 93.1018 255 0 0
0.501363 -0.308495 1.82232 255 0 0
-80.1641 76.0957 214.528 255 0 0
-22.6755 -19.7109 57.5112 255 0 0
-95.417 -70.982 415.07 255 0 0
15.4527 -6.19641 34.2413 255 0 0
-17.5835 -14.1051 43.9281 255 0 0
-31.922 -26.4185 66.4622 255 0 0
-0.321115 0.578212 1.7453 255 0 0
53.3638 -25.1093 91.9795 255 0 0
14.5951 -27.7302 82.5555 255 0 0
8.78457 -31.5731 155.253 255 0 0
2.96695 -0.113451 6.63083 255 0 0
-207.021 162.446 462.439 255 0 0
-34.9613 -26.3511 80.9587 255 0 0
-76.908 -46.7079 166.285 255 0 0
0.662902 -0.429308 2.29431 255 0 0
-41.9006 29.242 84.9207 255 0 0
139.271 -58.6493 343.066 255 0 0
-65.7146 -21.486 114.393 255 0 0
-17.457 7.46546 30.6123 255 0 0
52.1482 -30.2021 114.204 255 0 0
-0.643048 -53.1674 351.456 255 0 0
-4.81414 -4.74239 12.7177 255 0 0
-0.210516 -0.192632 1.36002 255 0 0
14.0308 -26.559 78.9581 255 0 0
-11.3168 -23.1408 61.409 255 0 0
12.7532 -24.1345 72.5479 255 0 0
52.8366 -28.8559 100.113 255 0 0
-106.192 73.9284 212.736 255 0 0
99.8964 -33.1274 196.683 255 0 0
-29.0718 -13.9971 57.9636 255 0 0
-37.0441 -26.5894 62.8069 255 0 0
-1.90467 -33.9785 153.946 255 0 0
-25.2117 15.0964 355.196 255 0 0
67.2042 -61.5733 278.92 255 0 0
-22.0199 -19.7543 56.2839 255 0 0
-27.0877 120.783 447.579 255 0 0
-81.7282 57.9775 166.278 255 0 0
-26.9281 -20.5459 63.1003 255 0 0
87.4959 131.911 489.95 255 0 0
123.153 -41.9702 242.365 255 0 0
-0.737346 0.78779 2.42243 255 0 0
79.1169 15.5102 160.507 255 0 0
-6.81246 -48.1894 305.329 255 0 0
-144.282 -42.0177 478.466 255 0 0
-1.22697 -0.312797 3.10713 255 0 0
2.74645 0.0211854 9.37523 255 0 0
-28.6652 73.5617 257.402 255 0 0
-124.32 108.451 310.503 255 0 0
-57.617 -40.8438 189.029 255 0 0
0.229039 0.0524019 1.83055 255 0 0
-33.134 40.6345 217.358 255 0 0
23.1247 -31.4908 104.812 255 0 0
29.1036 -39.3072 152.725 255 0 0
46.9952 -23.9944 110.037 255 0 0
-87.1325 -65.4597 384.93 255 0 0
112.23 -59.0593 371.751 255 0 0
0.00342006 -0.106986 1.33861 255 0 0
3.25764 6.21243 29.7636 255 0 0
-24.0313 -18.1968 51.1949 255 0 0
73.9191 -34.5183 125.279 255 0 0
-90.2037 74.0233 330.505 255 0 0
4.6847 0.456163 30.0073 255 0 0
49.8762 -23.7956 86.0349 255 0 0
-0.524582 -0.355584 2.14985 255 0 0
34.6287 -44.5605 213.744 255 0 0
36.4956 -20.2071 69.7802 255 0 0
-23.016 -20.9962 65.8447 255 0 0
-43.6438 -26.8168 94.3083 255 0 0
45.7431 -25.2183 81.8295 255 0 0
5.9553 -3.39241 14.5276 255 0 0
-5.28055 0.349596 10.0912 255 0 0
-54.4249 -23.4609 105.448 255 0 0
22.9422 113.848 382.935 255 0 0
0.067874 0.228626 1.45603 255 0 0
-19.9137 -16.1064 49.9552 255 0 0
-27.8393 -17.8028 64.1285 255 0 0
-113.744 79.2235 227.269 255 0 0
-22.6382 -42.4905 216.488 255 0 0
-93.3402 -9.27237 163.103 255 0 0
-93.8538 64.9071 181.441 255 0 0
-29.9682 -19.3224 51.1121 255 0 0
-0.0427666 -0.356834 1.52944 255 0 0
0.556243 -0.277615 3.22275 255 0 0
-0.70584 -0.409124 3.66415 255 0 0
-1.18537 1.26303 5.80525 255 0 0
-5.91043 -5.11757 11.8377 255 0 0
-49.4343 -23.2291 90.0173 255 0 0
51.2529 -30.3414 106.108 255 0 0
-0.0148084 0.170798 1.20616 255 0 0
5.25061 -3.1076 14.4599 255 0 0
40.4585 -27.9591 81.5256 255 0 0
1.12008 0.795337 3.01949 255 0 0
0.296642 0.116504 2.10654 255 0 0
154.089 -67.5405 402.521 255 0 0
19.4979 -39.2385 133.752 255 0 0
-20.694 -28.5543 120.022 255 0 0
67.2385 -61.3488 279.25 255 0 0
-63.9818 123.649 310 255 0 0
-35.1125 -28.5256 89.2674 255 0 0
0.24455 0.699163 1.72136 255 0 0
1.00708 -0.0219302 3.54274 255 0 0
-48.33 -23.1218 81.3044 255 0 0
-61.9362 -50.3442 146.901 255 0 0
-53.9474 45.4262 258.482 255 0 0
-27.1851 -24.7632 78.0911 255 0 0
-13.6598 -23.4624 69.7409 255 0 0
-213.851 166.549 468.917 255 0 0
33.1155 -30.227 106.721 255 0 0
100.315 -37.2127 230.356 255 0 0
-58.499 32.0885 267.873 255 0 0
0.18174 -0.368512 1.76643 255 0 0
-21.7785 -29.9877 126.019 255 0 0
0.210031 0.685913 2.02445 255 0 0
-56.3476 -40.4296 165.851 255 0 0
0.225576 -0.399288 2.05554 255 0 0
1.10466 0.777641 2.94443 255 0 0
-8.2374 -5.85129 18.6999 255 0 0
52.8381 -38.4183 202.982 255 0 0
-48.8009 -33.1103 150.966 255 0 0
7.58109 -2.67382 29.8777 255 0 0
-25.829 -19.4853 46.1052 255 0 0
-64.6956 -59.4713 174.17 255 0 0
9.28596 -23.6336 68.4764 255 0 0
38.5153 -40.7904 144.938 255 0 0
-73.1243 -31.8797 129.139 255 0 0
-80.7197 54.0897 330.917 255 0 0
-49.1846 -26.5271 99.0186 255 0 0
72.2486 -56.5157 256.28 255 0 0
1.22936 3.25905 7.44062 255 0 0
-13.4895 -6.05825 24.9897 255 0 0
-45.7667 31.2651 88.7407 255 0 0
1.3874 1.22753 4.67304 255 0 0
-36.3272 -18.1901 65.4622 255 0 0
-265.752 -125.915 493.621 255 0 0
-16.2339 -15.1513 41.1416 255 0 0
52.5613 -39.7354 182.518 255 0 0
-18.4678 60.3126 474.058 255 0 0
22.7922 -31.0962 103.836 255 0 0
-8.22273 0.178965 23.3369 255 0 0
-243.095 136.912 428.688 255 0 0
-3.9134 -1.89202 8.8891 255 0 0
56.9364 -31.2048 107.794 255 0 0
-24.7165 -28.7733 125.582 255 0 0
6.12162 -48.741 237.89 255 0 0
-169.686 124.808 357.48 255 0 0
-56.5271 -30.4938 113.983 255 0 0
14.4921 -33.1107 114.89 255 0 0
-65.8474 -31.406 112.459 255 0 0
-43.0782 -20.0443 73.4637 255 0 0
-57.8406 -32.9946 128.942 255 0 0
-25.4346 -23.0556 66.9338 255 0 0
-12.1403 -22.8247 59.3095 255 0 0
95.1762 -44.9939 163.247 255 0 0
-224.802 127.197 396.349 255 0 0
-0.160425 -1.92701 4.51743 255 0 0
66.6968 2.7706 120.546 255 0 0
-112.324 80.3607 228.987 255 0 0
-0.586182 0.614435 2.27299 255 0 0
-27.6528 -23.1469 64.6278 255 0 0
-96.6899 15.667 200.95 255 0 0
2.25588 -5.78913 16.3651 255 0 0
-33.2978 -17.9724 66.96 255 0 0
-75.7219 105.274 392.229 255 0 0
-0.328613 -1.2141 5.22692 255 0 0
-8.17104 -3.54862 423.468 255 0 0
-11.8556 -7.05871 21.815 255 0 0
-14.2761 -10.8238 25.6255 255 0 0
-91.3185 69.7748 381.732 255 0 0
42.9539 -19.7388 71.3043 255 0 0
-55.9065 -42.1831 206.962 255 0 0
2.15158 0.192744 4.5777 255 0 0
9.76573 -24.7807 71.7996 255 0 0
-94.4778 50.2894 436.272 255 0 0
-36.186 -22.627 81.5477 255 0 0
0.181225 -3.13992 8.02851 255 0 0
-0.335766 0.691592 2.57731 255 0 0
98.3799 -53.3144 183.58 255 0 0
6.33757 -2.87207 13.1647 255 0 0
10.5531 -25.3574 89.7309 255 0 0
222.05 -76.4003 422.216 255 0 0
-17.2893 -36.8282 186.608 255 0 0
24.3204 -44.9807 135.393 255 0 0
69.5984 -36.4597 128.137 255 0 0
-43.7115 -23.3686 83.5475 255 0 0
-176.21 107.705 379.625 255 0 0
-143.014 57.1089 368.231 255 0 0
1.16421 0.493145 3.49333 255 0 0
78.498 -41.9386 144.168 255 0 0
20.6405 -27.8992 89.3388 255 0 0
26.6343 -36.1796 117.028 255 0 0
-48.0547 -23.3424 82.8747 255 0 0
59.7813 -28.7337 124.665 255 0 0
-9.65538 -22.0689 53.9882 255 0 0
-59.4922 -51.5846 153.426 255 0 0
-24.0987 -63.9397 313.39 255 0 0
-144.983 8.7816 386.339 255 0 0
12.2271 -25.7083 77.2853 255 0 0
11.4137 -25.8272 77.7371 255 0 0
41.3349 6.34138 392.464 255 0 0
-35.2941 -29.5227 82.8824 255 0 0
-9.46933 21.2068 486.961 255 0 0
-193.087 150.235 429.99 255 0 0
-42.1404 -30.1384 123.584 255 0 0
0.0703944 1.10517 3.28638 255 0 0
11.8448 -27.0041 80.5265 255 0 0
27.1905 -32.3301 110.199 255 0 0
123.06 4.06492 312.306 255 0 0
19.0144 -28.6736 159.136 255 0 0
24.7967 -30.5912 101.603 255 0 0
11.1695 -25.3523 76.157 255 0 0
23.5651 -29.107 96.6756 255 0 0
-7.80325 -4.49062 25.9218 255 0 0
0.929978 0.784761 2.97783 255 0 0
-26.7063 -32.4459 110.669 255 0 0
-31.7388 -22.6347 92.6391 255 0 0
-0.0146821 -0.4684 1.44663 255 0 0
4.23879 0.566281 9.76549 255 0 0
1.5111 0.140138 6.35883 255 0 0
19.4239 -41.7196 180.66 255 0 0
3.51806 44.5521 429.168 255 0 0
31.2725 -28.3882 98.674 255 0 0
-9.03851 -8.09469 21.8186 255 0 0
-29.7698 -13.9719 52.0131 255 0 0
-40.9159 -19.3459 75.0542 255 0 0
-20.4245 -18.3295 52.0916 255 0 0
6.00465 5.99024 14.2205 255 0 0
-186.353 44.6121 413.856 255 0 0
-11.47 11.5606 31.0659 255 0 0
1.09989 -0.295572 3.36057 255 0 0
-3.99773 138.84 362.1 255 0 0
7.24817 0.851139 18.1342 255 0 0
-26.5232 -32.0234 128.4 255 0 0
-39.2447 71.5818 363.602 255 0 0
4.14998 -26.0227 67.948 255 0 0
126.744 -66.7913 447.016 255 0 0
97.2151 -55.6482 209.518 255 0 0
-67.8716 -2.65518 116.189 255 0 0
7.97687 -23.448 64.487 255 0 0
-35.0641 28.1959 79.425 255 0 0
36.1658 -22.8968 87.5285 255 0 0
-6.50916 -3.92466 18.0159 255 0 0
-158.668 -90.9824 356.069 255 0 0
-17.782 -16.2349 46.9375 255 0 0
47.3988 -28.5286 85.1068 255 0 0
-31.8906 -66.641 343.786 255 0 0
-0.47771 -0.342292 1.91271 255 0 0
30.6374 -25.5394 85.5858 255 0 0
-40.7793 -48.337 255.176 255 0 0
5.49863 1.09926 15.7179 255 0 0
-32.9542 -15.9806 59.5386 255 0 0
-97.8953 71.4081 203.426 255 0 0
-45.6931 -26.3544 94.5704 255 0 0
-6.4249 17.5116 360.946 255 0 0
1.194 1.21744 3.03495 255 0 0
12.5276 -5.52273 32.0056 255 0 0
1.87951 2.10729 5.83015 255 0 0
61.1749 -35.1143 129.337 255 0 0
37.2951 -17.8635 64.591 255 0 0
-34.2692 -16.6332 58.7998 255 0 0
53.2678 -25.2771 90.5609 255 0 0
11.4031 -9.12692 39.5491 255 0 0
-38.7725 150.893 390.513 255 0 0
29.1222 -17.6519 72.2443 255 0 0
-4.63445 10.379 39.2152 255 0 0
-26.976 20.94 58.2922 255 0 0
58.3283 -37.6387 118.733 255 0 0
38.6205 -25.933 107.126 255 0 0
6.00565 6.048 14.0325 255 0 0
31.5562 -32.6652 117.351 255 0 0
-20.9015 -13.324 47.795 255 0 0
-15.2502 -11.5566 27.4507 255 0 0
41.4767 -27.0721 79.4016 255 0 0
-100.221 37.2695 363.109 255 0 0
-4.4539 -1.93532 10.652 255 0 0
69.8315 -39.247 153.993 255 0 0
-1.16993 -2.10563 7.1548 255 0 0
39.7572 -24.0669 71.5576 255 0 0
2.08808 0.422428 6.36711 255 0 0
-42.5582 -27.2393 95.1195 255 0 0
-11.5269 -21.0672 58.754 255 0 0
88.5187 -40.3861 153.924 255 0 0
1.17026 -1.18718 3.51502 255 0 0
34.6358 -18.9862 64.5065 255 0 0
-30.7982 24.6829 69.5939 255 0 0
-20.2247 -27.881 99.7939 255 0 0
0.443548 -0.531808 1.91836 255 0 0
-5.11675 -8.74331 29.9082 255 0 0
-22.3384 -21.1763 65.0409 255 0 0
-1.58823 -6.07293 16.6784 255 0 0
0.0703517 0.0881775 1.65642 255 0 0
57.0635 -36.5028 115.243 255 0 0
18.6844 -19.6293 107.418 255 0 0
7.03023 -23.4637 63.9732 255 0 0
27.3982 -27.7818 88.9864 255 0 0
23.6233 -10.6714 63.032 255 0 0
-140.275 74.1744 237.4 255 0 0
-12.2287 -33.8077 139.55 255 0 0
-52.2496 -44.0087 134.77 255 0 0
2.66192 92.5717 258.264 255 0 0
12.4967 -5.69373 25.5245 255 0 0
28.4102 -20.7856 97.3042 255 0 0
42.1772 -54.9191 206.82 255 0 0
-29.0357 -21.7768 64.3472 255 0 0
-0.184239 0.556401 1.66387 255 0 0
0.539095 -0.189673 5.85682 255 0 0
1.28748 1.85068 4.18283 255 0 0
-38.1766 -21.9858 78.8067 255 0 0
-1.00361 1.00751 3.7148 255 0 0
0.330486 -0.617574 1.63769 255 0 0
2.34928 -3.83429 11.6949 255 0 0
24.0578 3.95014 68.8858 255 0 0
-0.00867133 0.425981 1.28414 255 0 0
57.1955 -28.2488 112.439 255 0 0
6.14963 -5.80728 19.974 255 0 0
57.9869 -1.46556 97.3038 255 0 0
-2.55212 -35.3434 197.433 255 0 0
-41.74 -22.2016 85.0013 255 0 0
-0.284334 -0.3462 1.90481 255 0 0
-28.0839 -16.8895 51.5736 255 0 0
16.0427 -29.7105 112.064 255 0 0
163.719 31.0343 330.85 255 0 0
1.97386 -2.40416 7.13168 255 0 0
1.32146 1.18216 3.25057 255 0 0
-6.5279 -29.0402 99.9293 255 0 0
0.566513 1.67481 4.0598 255 0 0
29.0306 -27.1831 94.5491 255 0 0
1.16813 -1.01989 3.70189 255 0 0
-5.9493 -5.3319 13.7252 255 0 0
-27.2741 -19.6601 54.4975 255 0 0
3.8721 -7.8903 24.297 255 0 0
-0.404541 0.526922 2.94169 255 0 0
1.31017 1.17356 3.23148 255 0 0
30.6732 -22.2149 69.0199 255 0 0
-14.1124 -45.1128 208.921 255 0 0
78.3723 -44.6397 175.426 255 0 0
-187.95 43.6484 413.938 255 0 0
29.2455 -26.4055 65.3578 255 0 0
22.865 -25.002 80.0699 255 0 0
0.421054 -0.610052 2.20935 255 0 0
30.9179 -25.7554 86.4922 255 0 0
11.5907 -26.0666 80.2967 255 0 0
-27.7104 -18.452 49.9106 255 0 0
4.87519 155.12 432.981 255 0 0
-98.544 -8.2538 433.508 255 0 0
-0.0490097 -0.980754 3.90079 255 0 0
37.7787 -45.1192 157.361 255 0 0
1.88809 -2.78178 8.61238 255 0 0
0.463168 -1.28542 3.80846 255 0 0
-26.374 41.5482 106.124 255 0 0
2.67369 -37.4573 168.617 255 0 0
-66.0367 -39.4892 143.47 255 0 0
-0.00208781 -0.823624 2.63161 255 0 0
-0.0875104 -0.821215 3.22669 255 0 0
-31.852 -30.7728 131.488 255 0 0
-16.7913 -13.1197 32.2796 255 0 0
127.18 23.7204 351.819 255 0 0
0.414217 -0.577701 2.46676 255 0 0
-17.3625 -11.0999 36.5013 255 0 0
-32.1209 17.3096 55.0695 255 0 0
-8.05816 -23.0898 59.7165 255 0 0
-12.9916 -11.5354 33.8511 255 0 0
4.94456 -23.2241 62.2469 255 0 0
22.1076 -29.1512 109.787 255 0 0
1.00716 1.43702 3.25121 255 0 0
-15.9378 -13.8934 43.509 255 0 0
-242.71 96.3513 432.86 255 0 0
-29.8446 -19.2408 54.8048 255 0 0
59.5788 -43.5994 171.45 255 0 0
40.536 -30.4067 87.0858 255 0 0
0.546601 -0.498509 2.50389 255 0 0
-187.707 37.8811 315.891 255 0 0
-3.2389 0.101371 13.7964 255 0 0
34.6855 7.19136 81.553 255 0 0
-23.0718 -19.4776 58.6361 255 0 0
-0.498785 -2.10776 5.40658 255 0 0
-58.2425 -26.0251 106.887 255 0 0
0.70524 -2.13533 7.39936 255 0 0
-0.991281 -0.774656 3.09211 255 0 0
17.7913 -28.2476 87.529 255 0 0
-21.4381 -34.4784 97.7324 255 0 0
-0.0774039 -0.99418 2.48216 255 0 0
-1.61032 -0.514069 3.74456 255 0 0
1.32202 4.11107 9.66039 255 0 0
1.0711 -57.3051 238.887 255 0 0
-0.413205 1.19064 9.30801 255 0 0
-23.6133 -40.6744 203.707 255 0 0
-0.255797 -1.63582 4.6404 255 0 0
-12.4644 -5.54385 22.838 255 0 0
8.08695 -23.5522 65.9144 255 0 0
-24.6718 -12.4818 49.2111 255 0 0
-26.5013 -23.708 65.9259 255 0 0
-16.8812 -27.1861 76.6141 255 0 0
11.3824 -26.0001 75.7364 255 0 0
43.1864 -34.235 146.197 255 0 0
-16.879 -11.4986 31.0884 255 0 0
-6.59577 -5.65789 17.2004 255 0 0
-12.115 -19.8242 45.8195 255 0 0
0.0358273 -1.15317 2.87249 255 0 0
-6.83172 -22.5631 57.6644 255 0 0
-1.94796 -4.02831 11.3556 255 0 0
63.3777 -37.4008 136.435 255 0 0
0.671316 1.55673 3.48824 255 0 0
-173.346 139.583 388.945 255 0 0
0.0186631 -0.903704 2.27378 255 0 0
-5.66768 -28.5622 97.3641 255 0 0
-2.29252 2.28161 18.1324 255 0 0
17.924 -27.5445 96.5005 255 0 0
22.3362 -25.5683 89.6771 255 0 0
11.7083 -26.5767 81.0715 255 0 0
16.7911 -24.9018 82.6141 255 0 0
77.9119 -45.8912 170.8 255 0 0
16.7753 -19.07 52.2713 255 0 0
-14.7872 -23.2968 79.4757 255 0 0
46.9559 -29.7048 98.7341 255 0 0
-9.54659 -23.1468 106.731 255 0 0
150.296 -49.5538 267.667 255 0 0
76.8055 42.1259 157.839 255 0 0
37.7369 -22.4745 78.4498 255 0 0
4.52584 -23.6131 72.5688 255 0 0
-0.824025 -2.99803 7.34402 255 0 0
0.564657 -0.461138 1.96938 255 0 0
27.5613 -23.0511 55.7659 255 0 0
-0.640444 0.53301 2.25153 255 0 0
1.95434 2.16326 6.00609 255 0 0
-31.2981 -42.9729 121.406 255 0 0
-73.6974 58.2128 163.035 255 0 0
-20.0326 -20.5562 49.8205 255 0 0
-40.1553 -17.9205 73.2933 255 0 0
46.6224 -38.945 137.158 255 0 0
1.96076 -2.54141 8.51352 255 0 0
-78.1945 196.087 480.312 255 0 0
0.113577 -0.65564 1.85062 255 0 0
-16.0716 -23.6518 73.9321 255 0 0
-1.35122 -2.86821 6.86375 255 0 0
-8.78517 -25.2297 78.9361 255 0 0
22.0225 -22.0329 55.3186 255 0 0
15.7853 -32.8583 146.318 255 0 0
21.9737 -24.8859 68.4462 255 0 0
32.0561 -25.1702 71.8289 255 0 0
33.1568 -22.7887 63.256 255 0 0
-8.74957 -23.5554 113.106 255 0 0
91.7485 19.361 218.741 255 0 0
36.4183 -28.7813 101.923 255 0 0
21.7949 132.72 338.69 255 0 0
-0.126196 -3.66984 12.4675 255 0 0
7.2706 -25.3417 72.2394 255 0 0
-188.848 144.067 413.128 255 0 0
108.821 -79.9809 439.681 255 0 0
-34.7743 -36.9335 178.2 255 0 0
-47.7682 -28.4958 103.417 255 0 0
21.002 19.6371 45.7319 255 0 0
3.1634 -29.8954 135.223 255 0 0
4.94417 -6.90029 21.9846 255 0 0
3.89321 -25.5071 67.3359 255 0 0
-112.59 54.1675 498.223 255 0 0
3.86927 -24.6082 63.9326 255 0 0
4.83408 -25.1183 76.9327 255 0 0
-0.16573 0.359512 1.59234 255 0 0
6.09621 -16.1254 46.3822 255 0 0
49.1747 -25.654 90.6722 255 0 0
-0.28054 0.580616 3.54406 255 0 0
-8.03476 -39.7905 159.706 255 0 0
-36.6063 -22.4305 78.8891 255 0 0
1.29423 1.92593 4.1491 255 0 0
7.44356 -3.06629 15.6484 255 0 0
-19.4767 9.29182 43.9247 255 0 0
-39.9354 -17.6921 71.8395 255 0 0
-14.0966 -8.43949 26.1585 255 0 0
-3.66699 -5.99477 14.4323 255 0 0
7.74012 -5.24087 20.831 255 0 0
18.2039 -37.1933 154.058 255 0 0
-26.9826 -23.6214 65.5411 255 0 0
-0.0500882 0.315346 1.16889 255 0 0
17.735 -20.4724 121.245 255 0 0
0.195278 0.791584 2.06941 255 0 0
19.9454 -29.6131 90.56 255 0 0
159.869 -107.83 460.779 255 0 0
9.4969 22.8013 49.7919 255 0 0
98.1207 -15.291 216.863 255 0 0
0.894776 1.51494 3.27415 255 0 0
23.0307 -23.0528 59.4048 255 0 0
1.13202 -0.601783 3.90092 255 0 0
0.0556817 -0.305384 4.92819 255 0 0
-144.71 104.424 289.792 255 0 0
7.03914 166.55 410.344 255 0 0
14.6814 -29.8684 108.186 255 0 0
-41.9104 83.446 409.426 255 0 0
-8.59344 -4.3803 20.5817 255 0 0
27.5211 -24.0176 93.1208 255 0 0
-10.2597 -5.99995 22.0278 255 0 0
-52.7061 -23.3218 95.1631 255 0 0
2.74746 -2.1085 7.22489 255 0 0
2.74343 -3.82557 12.4148 255 0 0
-13.976 -8.91353 24.5364 255 0 0
1.79267 1.69387 4.19965 255 0 0
-17.2685 -32.295 130.494 255 0 0
49.967 -43.2989 166.213 255 0 0
-48.639 -49.2357 156.441 255 0 0
133.006 -69.2846 247.802 255 0 0
-0.520801 -2.01321 8.17124 255 0 0
43.5156 -37.6035 146.086 255 0 0
-89.6588 -48.2922 415.014 255 0 0
2.22965 -2.36454 13.4066 255 0 0
-23.2367 -19.0517 45.0779 255 0 0
-19.3468 -31.9753 157.932 255 0 0
-20.9773 -21.8248 58.6934 255 0 0
-0.660509 0.953251 3.86597 255 0 0
25.7813 -30.0885 130.659 255 0 0
1.07683 -24.1494 59.2783 255 0 0
-0.862618 -0.733319 2.89872 255 0 0
45.9041 -24.1916 85.3432 255 0 0
123.849 -55.9644 249.43 255 0 0
0.000822761 -0.292777 1.1578 255 0 0
-2.77948 2.87535 8.17304 255 0 0
-14.124 -8.8974 30.6589 255 0 0
233.455 -121.322 434.105 255 0 0
41.0511 -26.7453 83.9216 255 0 0
-11.0339 -31.1783 93.4021 255 0 0
-87.826 71.7549 201.018 255 0 0
76.0409 -61.9612 316.296 255 0 0
33.9977 -50.5806 303.672 255 0 0
29.3474 -23.563 82.4545 255 0 0
193.913 -102.195 360.767 255 0 0
-0.298694 -27.1931 112.077 255 0 0
-63.826 30.1829 300.79 255 0 0
24.9063 -23.4583 59.2479 255 0 0
-8.16329 -20.988 50.0813 255 0 0
-6.50143 -23.1745 57.9513 255 0 0
1.07098 -6.91075 16.65 255 0 0
0.285117 -1.67962 5.95665 255 0 0
1.98039 -34.5502 137.837 255 0 0
-63.173 90.904 196.17 255 0 0
-6.5916 -5.27754 12.653 255 0 0
13.0014 -20.3185 58.4184 255 0 0
41.1346 -19.0243 68.3258 255 0 0
-45.9769 -23.895 95.8067 255 0 0
94.163 110.089 362.691 255 0 0
3.16769 -21.3309 56.4632 255 0 0
0.251278 -0.486127 1.48728 255 0 0
7.76025 -4.25189 56.294 255 0 0
5.88566 2.25851 17.1793 255 0 0
-29.9716 -16.929 62.6668 255 0 0
0.616214 -1.27814 3.12025 255 0 0
-13.7684 -6.49031 26.5259 255 0 0
34.9015 -22.8257 70.1446 255 0 0
-0.286632 -2.16553 7.34797 255 0 0
25.9996 -21.0464 73.5777 255 0 0
-1.51541 -3.18205 8.36397 255 0 0
21.5618 -24.7214 80.6665 255 0 0
-0.06802 -4.26164 9.80807 255 0 0
10.1164 -7.54685 21.6274 255 0 0
17.4355 -22.3296 53.3349 255 0 0
-17.306 -26.5394 69.987 255 0 0
-126.678 103.522 290.556 255 0 0
2.13441 -3.30268 10.5926 255 0 0
-8.95976 -22.1464 63.6483 255 0 0
6.20097 -29.728 132.849 255 0 0
-21.4897 -11.4964 40.5112 255 0 0
-195.176 158.085 438.099 255 0 0
9.53381 -7.64008 33.3899 255 0 0
-26.0205 -35.7005 177.296 255 0 0
0.423415 -1.12804 4.44883 255 0 0
-9.47255 -27.6158 82.5678 255 0 0
-0.503917 -0.149137 2.58568 255 0 0
44.2837 -36.9844 185.234 255 0 0
1.41485 0.593245 3.39336 255 0 0
1.63046 1.87726 5.79311 255 0 0
40.2267 -34.3652 127.811 255 0 0
-0.0140558 -1.11651 3.39311 255 0 0
3.97538 2.83304 7.99374 255 0 0
-35.9085 -53.257 272.376 255 0 0
23.6477 -19.09 66.7612 255 0 0
-23.9251 39.8186 101.714 255 0 0
-13.0379 69.9962 176.443 255 0 0
25.6725 -17.5331 48.7174 255 0 0
1.13967 -2.66632 8.93354 255 0 0
0.0857764 -0.567944 1.63576 255 0 0
-17.0229 -24.8315 72.8282 255 0 0
-0.0614685 0.521719 1.28145 255 0 0
0.189987 -0.554757 1.82326 255 0 0
1.14209 1.55465 4.01893 255 0 0
73.9638 18.5585 236.985 255 0 0
120.393 26.5656 322.8 255 0 0
-0.244981 -24.1552 67.5494 255 0 0
-10.0104 -41.7485 184.129 255 0 0
96.1613 76.7582 245.215 255 0 0
-91.0534 73.0999 397.551 255 0 0
-18.7422 -25.4896 126.533 255 0 0
-8.62892 -24.5909 67.6376 255 0 0
-0.688224 0.249466 2.64823 255 0 0
-13.5716 -43.45 165.622 255 0 0
7.19457 8.37435 27.5394 255 0 0
-12.7026 -22.2006 59.7406 255 0 0
-9.73276 -28.2611 88.3779 255 0 0
-14.7187 -29.5725 116.717 255 0 0
16.6619 -26.3276 75.5361 255 0 0
0.0689734 -0.795517 2.28274 255 0 0
52.1297 -23.9935 86.3265 255 0 0
0.295447 -0.315947 1.67718 255 0 0
26.6387 -38.1672 201.528 255 0 0
2.22369 -2.34698 5.40526 255 0 0
25.3417 -11.4452 48.6456 255 0 0
5.26854 6.43612 19.2878 255 0 0
-26.6157 -52.8304 213.144 255 0 0
-1.86475 -2.35271 11.2179 255 0 0
-41.393 72.4514 179.954 255 0 0
11.0956 -53.7594 333.394 255 0 0
-13.4678 -20.5118 53.9077 255 0 0
30.3221 -21.83 59.8773 255 0 0
1.33298 1.22651 3.81597 255 0 0
-41.2901 94.3796 386.609 255 0 0
5.53011 -23.0735 78.3222 255 0 0
-8.71351 -5.86307 16.3378 255 0 0
42.3936 -29.1867 86.3454 255 0 0
12.9611 3.73093 36.3205 255 0 0
3.63929 2.20785 7.76036 255 0 0
-38.8695 -39.8107 179.456 255 0 0
0.269445 -0.729805 1.71973 255 0 0
29.8662 -25.2218 75.0094 255 0 0
-20.5545 -25.6122 88.9505 255 0 0
-18.143 -32.3059 140.002 255 0 0
-0.30203 -1.95154 6.64146 255 0 0
18.4982 -32.1339 109.194 255 0 0
-0.847063 1.24907 6.71119 255 0 0
11.0657 -9.43047 35.3945 255 0 0
101.286 -52.3969 343.914 255 0 0
10.3991 -8.47599 31.2649 255 0 0
25.9618 -19.8836 91.1942 255 0 0
39.7437 -28.7845 118.516 255 0 0
-0.317137 1.68164 4.42421 255 0 0
-110.953 15.9088 460.813 255 0 0
0.464496 -1.56114 4.7708 255 0 0
42.2529 -27.0044 79.3191 255 0 0
4.00645 -26.2435 69.0329 255 0 0
-0.198303 -0.293524 1.56183 255 0 0
70.7459 -49.4579 223.409 255 0 0
0.252125 -0.596149 1.8634 255 0 0
0.0106122 -0.510346 2.51321 255 0 0
-18.3169 -21.186 64.2016 255 0 0
-0.32866 -3.5355 9.66532 255 0 0
0.115385 -0.651532 2.15214 255 0 0
6.77989 -25.2533 72.3546 255 0 0
-0.281027 7.49928 17.1339 255 0 0
62.1815 8.22824 141.757 255 0 0
31.0002 -22.3779 61.1903 255 0 0
1.9652 1.75268 5.86467 255 0 0
0.4075 -0.573525 1.99096 255 0 0
-33.9485 -32.151 99.778 255 0 0
39.5926 -29.5703 97.259 255 0 0
-9.05056 -37.3971 165.349 255 0 0
43.1092 -36.7932 117.999 255 0 0
1.12716 -1.3375 3.37846 255 0 0
10.3304 -23.2841 61.9639 255 0 0
0.178451 -1.19237 4.15327 255 0 0
1.2324 -1.33632 3.11005 255 0 0
2.06562 -21.2361 52.0821 255 0 0
-15.4317 -44.1125 177.989 255 0 0
-40.0861 59.9162 153.432 255 0 0
-48.7906 86.4456 212.587 255 0 0
91.0534 66.9197 158.311 255 0 0
35.1469 -22.5597 62.7177 255 0 0
9.91711 -22.4564 59.6212 255 0 0
-0.285978 0.530994 1.61459 255 0 0
-2.23509 -6.22678 15.5287 255 0 0
63.4748 -39.0726 170.631 255 0 0
-95.0243 40.046 170.551 255 0 0
1.00114 0.0666046 3.52965 255 0 0
24.8979 -30.0092 105.213 255 0 0
-158.652 -22.3405 409.42 255 0 0
8.435 2.74993 15.1192 255 0 0
0.585393 0.801419 2.37149 255 0 0
31.2445 13.7904 61.7996 255 0 0
6.64319 -7.31663 18.4534 255 0 0
23.83 101.146 344.633 255 0 0
25.3766 -24.3572 61.7345 255 0 0
32.147 -23.8222 64.3595 255 0 0
4.3055 4.43305 10.8727 255 0 0
69.3558 51.1235 120.833 255 0 0
26.3421 -23.7279 62.1394 255 0 0
-8.35519 -20.4832 47.2805 255 0 0
0.38995 -1.18178 3.4553 255 0 0
5.43357 2.03826 21.8877 255 0 0
25.6221 -24.4178 72.6564 255 0 0
52.028 30.0473 85.7569 255 0 0
252.627 -78.5848 435.098 255 0 0
2.03832 -1.71144 4.39712 255 0 0
-91.3316 55.5884 165.838 255 0 0
50.2156 24.2797 206.684 255 0 0
-1.12635 131.36 351.129 255 0 0
1.93288 -8.85184 35.7145 255 0 0
0.792443 -6.03021 15.0966 255 0 0
33.6428 -23.6163 61.764 255 0 0
2.9973 -5.54744 12.929 255 0 0
0.683283 1.60026 3.57592 255 0 0
-1.66524 -1.69088 10.147 255 0 0
-20.0804 -32.0378 203.021 255 0 0
0.00102764 -0.576153 1.43361 255 0 0
-17.2295 -21.9126 70.3651 255 0 0
-27.4855 -31.8231 130.949 255 0 0
0.991577 0.0303691 3.50857 255 0 0
-12.5741 -26.6947 92.1585 255 0 0
69.7802 51.0335 121.566 255 0 0
-6.80596 -14.4195 66.2127 255 0 0
-28.2817 -19.5584 55.7412 255 0 0
1.01641 -23.3361 57.5779 255 0 0
34.9922 -22.2454 62.4463 255 0 0
1.90565 1.8452 4.45352 255 0 0
0.052979 -1.12576 2.60828 255 0 0
0.856944 -1.12248 4.85703 255 0 0
-132.9 1.04757 384.716 255 0 0
-30.8927 -25.5789 392.996 255 0 0
6.35169 -2.59709 12.8899 255 0 0
-117.771 108.635 282.617 255 0 0
1.92096 -28.3909 80.7921 255 0 0
-14.5013 -21.2214 68.9828 255 0 0
7.08058 -24.3042 67.3926 255 0 0
23.8682 -23.1811 62.0095 255 0 0
-78.0076 72.3206 186.708 255 0 0
-8.53325 -24.3404 66.8317 255 0 0
4.4589 -2.81178 11.551 255 0 0
-8.92212 -8.43071 21.2168 255 0 0
-11.6207 -37.3324 140.712 255 0 0
-8.37111 -21.1537 48.3872 255 0 0
-21.746 -36.6675 121.171 255 0 0
-25.4052 -29.7709 398.952 255 0 0
0.741353 0.81161 2.24934 255 0 0
29.6695 178.098 493.641 255 0 0
-20.6463 -14.5412 41.5232 255 0 0
-11.6375 -19.9592 81.0841 255 0 0
-56.503 -25.5227 105.37 255 0 0
-11.8474 -35.0475 104.668 255 0 0
34.0309 -25.39 69.0434 255 0 0
-11.1472 -20.6672 50.6603 255 0 0
22.8824 -22.8186 67.2122 255 0 0
2.61865 3.22199 8.55503 255 0 0
-10.3128 -9.16717 26.5333 255 0 0
-12.763 -22.4701 69.4844 255 0 0
-2.20239 0.287062 6.38678 255 0 0
0.0316484 0.43982 1.02793 255 0 0
-20.2338 -7.61171 39.1409 255 0 0
0.908483 1.3073 3.34013 255 0 0
9.54868 8.00743 20.9179 255 0 0
0.603283 0.806538 2.86832 255 0 0
0.988521 2.01021 4.3953 255 0 0
-1.18598 -2.16987 5.81454 255 0 0
-19.1866 -29.0185 105.392 255 0 0
-8.78705 -22.1002 71.7435 255 0 0
-0.0347262 -0.658616 1.77007 255 0 0
-56.5481 -34.8561 127.136 255 0 0
-1.38161 1.17176 3.52049 255 0 0
59.0003 46.0858 108.806 255 0 0
-79.1716 -41.1456 161.136 255 0 0
1.1124 -1.80532 4.4995 255 0 0
26.1696 -24.097 72.0507 255 0 0
-1.71539 -3.91313 10.1912 255 0 0
-128.66 0.923366 368.492 255 0 0
-24.5651 -19.3149 59.0987 255 0 0
-2.85424 -3.38902 9.64365 255 0 0
-6.5085 -27.1422 81.8145 255 0 0
6.79146 -28.0648 101.961 255 0 0
0.437414 -0.797668 1.89604 255 0 0
-33.3669 58.8783 147.231 255 0 0
-37.9269 91.536 225.987 255 0 0
-0.375138 -0.360325 1.8321 255 0 0
-25.1489 -35.9505 173.351 255 0 0
0.728884 1.70048 3.89949 255 0 0
-0.0806336 2.17686 4.74607 255 0 0
-108.516 99.3148 251.547 255 0 0
1.21905 -24.0272 64.3562 255 0 0
-17.3617 -33.1099 150.53 255 0 0
3.00221 3.43794 9.90464 255 0 0
3.8448 -16.9416 44.007 255 0 0
1.54518 2.42258 6.44174 255 0 0
-10.9287 40.532 105.665 255 0 0
-14.2709 -28.6329 135.002 255 0 0
2.84352 3.61014 8.72666 255 0 0
52.754 -31.6052 95.7066 255 0 0
-15.876 -23.0337 88.8413 255 0 0
-5.75871 -4.61733 10.8941 255 0 0
-18.7278 -29.8598 121.196 255 0 0
25.9231 -20.4562 64.509 255 0 0
-56.2665 45.827 128.287 255 0 0
-63.627 57.4225 129.897 255 0 0
1.1571 -1.30375 5.11956 255 0 0
-0.503326 -2.22674 6.10633 255 0 0
0.122024 -0.512807 1.22546 255 0 0
16.7786 0.443409 47.8653 255 0 0
10.7291 134.128 304.192 255 0 0
0.498268 -1.78499 4.12466 255 0 0
7.69011 -3.05543 16.2242 255 0 0
39.687 36.7164 84.7839 255 0 0
-0.895856 -1.86082 5.91922 255 0 0
43.4058 -50.6135 185.89 255 0 0
62.0929 -26.7421 141.24 255 0 0
-20.1905 -30.4297 98.8677 255 0 0
6.64064 -22.9946 63.5324 255 0 0
0.0612395 1.0388 2.28884 255 0 0
1.50219 2.04384 4.63945 255 0 0
0.406252 -1.11761 3.79089 255 0 0
-0.350602 -1.94352 4.59813 255 0 0
18.4299 12.2072 31.8448 255 0 0
15.0695 -23.2665 57.5904 255 0 0
26.9133 11.9044 53.394 255 0 0
27.7677 -25.3386 97.1084 255 0 0
-0.293108 -1.48194 3.71118 255 0 0
0.466664 -1.0123 4.69474 255 0 0
-7.16066 -23.8748 65.0994 255 0 0
-18.5379 -35.3719 161.093 255 0 0
0.882149 1.04478 2.8992 255 0 0
1.75517 0.534044 4.03431 255 0 0
47.3903 -79.1142 464.016 255 0 0
161.615 -34.8513 388.357 255 0 0
-0.945687 -0.906758 2.57662 255 0 0
-24.6158 -20.3738 50.9592 255 0 0
4.66982 -7.34016 18.3937 255 0 0
-1.47581 0.279161 5.9472 255 0 0
9.3655 6.86312 19.5693 255 0 0
-2.22898 2.49134 7.02968 255 0 0
3.57701 1.00454 14.0648 255 0 0
-0.361695 -0.116971 2.14698 255 0 0
-27.5594 -21.4021 65.2718 255 0 0
-18.5338 -29.533 119.899 255 0 0
-12.6961 -20.2102 52.4268 255 0 0
-0.938019 4.42271 9.91458 255 0 0
-0.903983 -1.05298 2.91137 255 0 0
127.339 -82.0967 298.936 255 0 0
49.3995 -55.0887 196.727 255 0 0
53.3692 -44.0089 110.003 255 0 0
56.9914 -37.4876 170.701 255 0 0
-8.67276 -21.6906 101.344 255 0 0
-0.716308 -1.5782 3.73948 255 0 0
-1.83042 -2.36282 5.89233 255 0 0
55.8148 -27.3515 92.1956 255 0 0
-14.2685 -22.7441 69.1165 255 0 0
-76.5489 66.8318 187.928 255 0 0
70.85 -34.6375 126.585 255 0 0
-19.2847 -18.6761 64.0036 255 0 0
175.779 -52.4297 315.437 255 0 0
55.6686 -29.2241 94.4361 255 0 0
13.2933 105.52 285.723 255 0 0
-0.0745438 -0.933591 2.35496 255 0 0
11.9172 5.03272 30.8553 255 0 0
0.325397 -1.063 4.14892 255 0 0
31.9093 1.0152 281.368 255 0 0
4.28667 -18.1748 47.6171 255 0 0
-1.95011 -0.89096 4.35721 255 0 0
1.08159 -8.08124 19.9398 255 0 0
-6.64995 -19.2091 43.5831 255 0 0
-6.4667 -30.039 114.895 255 0 0
13.4063 -9.42057 26.2339 255 0 0
34.4145 -30.1522 123.712 255 0 0
1.25637 -5.3904 14.5316 255 0 0
0.275917 -1.08201 3.0301 255 0 0
34.0716 -22.5472 59.3667 255 0 0
-12.6694 -8.46178 23.8087 255 0 0
33.4765 -30.2634 73.548 255 0 0
-0.848487 -1.27852 6.48785 255 0 0
-182.531 -47.8675 494.091 255 0 0
34.3262 -22.8468 60.492 255 0 0
-1.5545 -2.97122 11.7167 255 0 0
20.6043 -10.6551 103.489 255 0 0
-4.9664 9.91838 41.4865 255 0 0
-23.9301 -46.6493 240.867 255 0 0
27.2932 -33.8848 90.3032 255 0 0
-7.38627 -24.6973 70.0711 255 0 0
1.10055 -20.8385 55.8214 255 0 0
-0.0127636 -0.298881 1.17698 255 0 0
-12.188 -6.50232 26.0429 255 0 0
10.3313 -34.5577 148.139 255 0 0
40.0091 -32.6078 86.3186 255 0 0
0.302732 -0.494189 2.02957 255 0 0
-9.80272 -26.3889 80.8131 255 0 0
0.148258 -0.478863 2.18406 255 0 0
0.26902 -0.546662 1.83696 255 0 0
3.6168 2.41813 7.08773 255 0 0
0.228523 -0.821672 2.01897 255 0 0
0.411218 -1.31546 4.87741 255 0 0
-24.2378 -21.6791 51.1798 255 0 0
-14.7997 -21.2451 75.8793 255 0 0
-32.2507 -44.7986 231.104 255 0 0
1.39465 -2.4026 5.66467 255 0 0
-1.16698 -6.34227 15.6362 255 0 0
28.1762 -21.3034 75.5869 255 0 0
-7.41491 -34.8454 133.465 255 0 0
-2.89657 -3.45209 9.82473 255 0 0
-46.3966 -51.8171 291.888 255 0 0
-12.7246 -27.946 129.36 255 0 0
1.01344 1.17732 3.80978 255 0 0
-48.847 -24.2031 83.0195 255 0 0
1.38095 -1.25181 3.68041 255 0 0
78.963 -39.151 268.256 255 0 0
36.8939 119.002 286.143 255 0 0
0.925856 0.94577 2.82045 255 0 0
0.233326 0.145644 1.48199 255 0 0
-10.8804 -26.2022 104.833 255 0 0
-4.11241 -31.7601 148.147 255 0 0
-3.08408 -4.43144 12.0337 255 0 0
51.4428 -36.3695 112.61 255 0 0
1.19542 -0.710711 2.96823 255 0 0
56.1318 -46.9118 217.473 255 0 0
2.63692 0.504398 6.71762 255 0 0
2.66545 2.08828 5.91503 255 0 0
-17.1578 -36.283 127.437 255 0 0
0.292352 -1.27819 4.02282 255 0 0
53.2822 -23.8722 101.408 255 0 0
2.01804 1.83643 4.61852 255 0 0
15.7593 -12.2488 30.1072 255 0 0
6.67216 5.38403 13.9873 255 0 0
-3.56919 3.76985 8.15453 255 0 0
28.4276 -19.2275 70.1064 255 0 0
-49.8697 77.454 195.554 255 0 0
-7.82534 -19.3544 48.5914 255 0 0
-51.3608 -38.6051 110.414 255 0 0
0.521705 -1.03811 3.99836 255 0 0
17.323 -79.2551 209.552 255 0 0
65.8031 50.7563 121.612 255 0 0
-8.62418 -21.6354 53.9638 255 0 0
2.58859 5.79906 18.5485 255 0 0
-1.54933 -0.449087 5.60497 255 0 0
60.274 9.02805 116.304 255 0 0
6.2637 -3.52949 14.7019 255 0 0
105.551 -63.0017 234.645 255 0 0
37.6074 16.4366 67.9604 255 0 0
4.07776 4.3102 9.50271 255 0 0
-45.6187 -65.845 317.899 255 0 0
9.10611 10.2061 27.9836 255 0 0
16.4205 18.3752 52.1964 255 0 0
2.49906 -4.44456 10.1797 255 0 0
37.3174 -26.8457 67.7769 255 0 0
0.630136 -1.307 3.35084 255 0 0
0.813486 1.30036 3.51166 255 0 0
67.8594 -45.8414 180.359 255 0 0
0.47872 -0.576048 2.13171 255 0 0
-3.85062 -30.6306 126.596 255 0 0
2.31946 1.61679 7.15019 255 0 0
-18.1036 -9.00325 34.2309 255 0 0
-18.7856 -18.8779 47.31 255 0 0
-0.159094 0.620147 1.49979 255 0 0
0.193373 -0.736188 2.05701 255 0 0
30.9476 -24.1769 67.5886 255 0 0
116.273 52.7717 270.892 255 0 0
-15.4188 31.2877 139.858 255 0 0
33.3633 -31.4128 88.0817 255 0 0
2.32604 2.57541 6.86687 255 0 0
-24.1458 -19.1756 49.1876 255 0 0
-1.69818 -1.97715 10.4309 255 0 0
1.44553 1.99978 4.66903 255 0 0
-25.062 178.347 398.378 255 0 0
-0.0775639 0.519403 1.38937 255 0 0
39.3872 -26.3549 82.3407 255 0 0
16.088 -26.5467 61.7251 255 0 0
2.65098 -4.65002 12.268 255 0 0
0.171048 -1.29425 3.45692 255 0 0
2.17886 -2.04828 5.81407 255 0 0
2.30904 0.328859 5.78458 255 0 0
41.1002 -33.5255 88.6378 255 0 0
24.8415 -28.0236 100.102 255 0 0
17.8097 -11.5669 31.6334 255 0 0
3.5948 3.14326 8.09471 255 0 0
0.212126 -0.59823 1.75723 255 0 0
-23.4752 -30.0086 127.315 255 0 0
-6.31179 -15.4982 46.7074 255 0 0
5.18746 7.10803 16.328 255 0 0
-16.8602 110.072 244.072 255 0 0
2.0605 -1.39796 5.71586 255 0 0
70.1753 60.4242 137.619 255 0 0
52.0274 19.1793 155.337 255 0 0
-1.95836 -29.2331 98.8163 255 0 0
-2.69598 -3.89671 10.1536 255 0 0
88.8365 -43.6156 183.993 255 0 0
2.03076 -1.29129 5.56938 255 0 0
-4.70083 -23.4142 55.4826 255 0 0
-2.78152 -3.522 8.96106 255 0 0
32.826 -25.7347 71.8129 255 0 0
195.519 129.486 433.272 255 0 0
68.455 41.8777 173.884 255 0 0
9.33943 7.66407 20.1069 255 0 0
-6.5484 -16.14 48.6422 255 0 0
3.44987 1.89324 6.79131 255 0 0
-34.1844 51.6065 130.041 255 0 0
0.734439 -1.306 3.43672 255 0 0
-23.8645 35.7436 90.0817 255 0 0
-2.43495 -2.62346 6.49945 255 0 0
12.7871 9.98315 21.605 255 0 0
1.17266 1.19129 3.58599 255 0 0
34.8856 12.5001 92.5415 255 0 0
-15.9641 -21.1491 49.4409 255 0 0
48.8998 -36.0048 154.962 255 0 0
-5.98665 -42.5252 197.701 255 0 0
1.61013 1.50494 4.53638 255 0 0
25.4813 -23.9637 67.6401 255 0 0
1.64955 -0.871689 4.2265 255 0 0
1.67983 -0.88524 4.28339 255 0 0
-1.46091 -6.04072 17.2243 255 0 0
-0.485483 0.987764 2.14664 255 0 0
-0.350795 -0.978878 2.51798 255 0 0
1.74284 -1.25121 4.58078 255 0 0
-6.54383 -20.344 58.0831 255 0 0
30.2511 -22.8529 91.2119 255 0 0
1.23943 -3.04322 7.97648 255 0 0
2.61798 -3.79771 11.9572 255 0 0
-27.1402 -23.0145 65.4007 255 0 0
-31.448 -33.523 155.484 255 0 0
2.22285 0.174745 4.58881 255 0 0
2.87148 2.30441 5.87013 255 0 0
2.60615 2.44531 5.42781 255 0 0
10.3302 -24.2812 67.7691 255 0 0
0.118116 0.696967 1.68528 255 0 0
0.294345 -0.758263 3.35629 255 0 0
-7.92898 -38.1842 111.338 255 0 0
1.54885 2.6769 7.91683 255 0 0
4.07827 -4.20228 13.5089 255 0 0
301.816 203.682 492.147 255 0 0
1.02471 0.962522 3.13521 255 0 0
-2.79413 7.65153 409.635 255 0 0
0.393063 1.21417 2.88303 255 0 0
0.296854 -0.629577 2.19953 255 0 0
7.38944 -2.85856 14.6081 255 0 0
15.9699 -28.7093 78.1913 255 0 0
-0.386223 -1.35876 3.1467 255 0 0
-0.0487411 0.359003 1.32673 255 0 0
209.667 26.3718 393.664 255 0 0
30.1891 -28.3711 101.524 255 0 0
1.42944 -0.39621 4.85866 255 0 0
1.67881 0.901845 3.99979 255 0 0
-0.884898 0.998692 2.70137 255 0 0
-0.259247 1.0995 2.37605 255 0 0
2.03682 -34.8404 93.2884 255 0 0
-0.188699 0.634434 1.3518 255 0 0
141.446 143.536 399.307 255 0 0
-3.03409 -4.33397 11.7915 255 0 0
-74.2736 -38.2762 149.093 255 0 0
-33.2624 -26.2501 61.6516 255 0 0
0.958423 -0.95287 2.68404 255 0 0
1.62824 -2.44742 10.8751 255 0 0
144.707 94.9105 238.384 255 0 0
-3.28039 -5.67979 15.1817 255 0 0
162.366 109.856 265.209 255 0 0
-0.396201 -4.20993 10.8266 255 0 0
4.39583 1.85028 8.5258 255 0 0
-0.743572 2.20839 5.52796 255 0 0
2.39298 0.977816 5.27781 255 0 0
-47.0728 43.5193 102.137 255 0 0
1.02251 -1.43631 3.7447 255 0 0
0.0527783 -5.64573 14.1068 255 0 0
-0.393927 -1.26088 3.2551 255 0 0
-1.8724 -2.61785 6.17981 255 0 0
30.4568 -25.2214 63.5741 255 0 0
-1.95804 -2.09194 4.8102 255 0 0
4.70746 4.018 13.1858 255 0 0
0.0233283 -1.31879 4.31757 255 0 0
32.1914 -27.3298 77.1554 255 0 0
-4.44882 4.54187 9.91331 255 0 0
-0.887762 -2.08943 5.36848 255 0 0
-9.32703 -4.75632 18.0768 255 0 0
2.44624 -26.5451 78.7616 255 0 0
-5.53929 -25.6821 75.0354 255 0 0
0.332322 -1.43535 3.68897 255 0 0
0.96866 1.27925 3.3862 255 0 0
1.97504 1.36961 5.09719 255 0 0
2.40345 5.43738 17.4715 255 0 0
-0.405412 3.11651 6.79333 255 0 0
-0.0261506 0.625435 1.58168 255 0 0
18.7656 -35.4853 84.494 255 0 0
175.733 127.998 356.79 255 0 0
17.1314 13.3163 30.6314 255 0 0
66.5209 -32.493 117.508 255 0 0
77.5973 73.78 257.006 255 0 0
11.9972 9.50641 21.8014 255 0 0
-1.34205 -4.2628 13.3492 255 0 0
5.13944 2.03674 12.5716 255 0 0
72.9237 73.7998 216.721 255 0 0
-16.7106 -30.0784 111.849 255 0 0
-11.0595 -17.0181 82.6755 255 0 0
61.6378 49.7372 108.935 255 0 0
0.204295 0.668794 1.45974 255 0 0
0.322982 -0.524532 1.80405 255 0 0
-89.7359 114.449 301.774 255 0 0
5.02954 2.36792 9.60729 255 0 0
0.629515 0.944245 2.24597 255 0 0
-0.544314 -1.8191 4.46982 255 0 0
3.17321 1.89459 6.90716 255 0 0
1.07428 0.828292 2.86669 255 0 0
-0.139529 -0.787905 1.82197 255 0 0
189.945 27.5073 364.048 255 0 0
-0.48631 -1.82477 4.71073 255 0 0
-0.167954 0.919897 2.23245 255 0 0
7.98734 -22.1276 68.0851 255 0 0
-14.421 -26.1132 95.9536 255 0 0
-30.1825 -23.1128 63.9875 255 0 0
1.75428 3.71293 8.23026 255 0 0
2.93921 2.11948 6.64866 255 0 0
-21.9784 23.81 55.0048 255 0 0
-0.0713284 -0.0469357 1.32127 255 0 0
18.945 -14.681 37.9713 255 0 0
0.225246 0.587976 1.42822 255 0 0
-0.239153 1.44281 3.14278 255 0 0
1.11471 1.04711 3.71027 255 0 0
-0.133403 -1.50355 4.54665 255 0 0
57.3503 -43.2897 112.592 255 0 0
1.53398 -30.3321 114.651 255 0 0
27.92 -33.432 117.827 255 0 0
1.43972 -0.975735 4.19621 255 0 0
0.377332 -0.357952 1.59068 255 0 0
-2.50779 -4.84311 23.95 255 0 0
-4.63458 -27.3608 69.9487 255 0 0
43.1847 32.691 157.764 255 0 0
-17.8499 -28.1923 106.304 255 0 0
30.4337 -26.3666 63.8696 255 0 0
4.07757 -2.4781 10.9294 255 0 0
-0.136852 0.50873 1.31662 255 0 0
12.9059 8.28093 22.1698 255 0 0
-2.30332 -6.92992 20.9086 255 0 0
-58.7547 89.7097 223.633 255 0 0
75.9894 38.6697 220.798 255 0 0
0.225441 -0.868225 3.21517 255 0 0
0.947506 1.5292 3.27116 255 0 0
0.70577 -1.02898 3.52085 255 0 0
26.8578 -16.8674 69.0934 255 0 0
17.076 -22.3273 54.1806 255 0 0
0.266722 -0.589253 2.30219 255 0 0
0.656725 -1.73675 5.57207 255 0 0
-1.35044 -8.75169 23.5804 255 0 0
0.357607 -1.81692 5.63172 255 0 0
2.44369 0.786494 5.21138 255 0 0
14.6185 4.82518 29.0628 255 0 0
243.527 162.242 418.18 255 0 0
-4.4225 3.88828 8.50697 255 0 0
-25.1852 -22.3174 54.6142 255 0 0
-0.668535 -6.22259 25.5175 255 0 0
0.986827 1.21743 3.50568 255 0 0
4.10824 2.84298 10.3733 255 0 0
-0.00328537 0.384311 1.01278 255 0 0
0.295878 0.792239 1.73641 255 0 0
68.3199 25.9294 217.13 255 0 0
-6.17168 -9.30241 23.0459 255 0 0
-8.88342 -4.39275 16.7536 255 0 0
0.458737 -1.79658 4.52297 255 0 0
22.9425 -17.5815 69.1597 255 0 0
63.1865 21.8115 130.851 255 0 0
0.302096 1.06993 2.56189 255 0 0
-0.183517 -0.748166 1.81715 255 0 0
0.424099 1.06023 2.43812 255 0 0
-0.84837 -6.24366 16.8187 255 0 0
-24.3329 -26.3224 115.964 255 0 0
3.31199 -24.9506 85.9031 255 0 0
19.7185 -39.363 96.5061 255 0 0
123.271 62.8268 357.105 255 0 0
-22.8961 -15.6178 53.9145 255 0 0
2.20339 2.19453 5.26637 255 0 0
3.06596 -1.19967 15.5313 255 0 0
2.7005 1.5459 5.65661 255 0 0
5.59542 -4.44858 19.1151 255 0 0
-0.538556 -3.57026 8.62594 255 0 0
9.05265 5.32472 17.1694 255 0 0
1.61862 1.47947 4.53234 255 0 0
0.205815 -0.619916 2.14689 255 0 0
90.8053 -82.8469 231.647 255 0 0
0.216593 -1.85771 5.45477 255 0 0
1.61567 -0.93689 4.03838 255 0 0
-0.052198 0.52149 1.37658 255 0 0
12.9303 -11.4709 33.7161 255 0 0
131.739 55.8195 355.52 255 0 0
1.36485 0.900195 3.53327 255 0 0
8.27444 3.9933 15.7931 255 0 0
-1.02852 -2.22169 5.93372 255 0 0
0.216681 -0.756433 1.85154 255 0 0
-0.499274 0.259563 2.89106 255 0 0
0.263034 -0.752924 2.32706 255 0 0
81.401 121.524 292.796 255 0 0
0.299877 -0.755712 1.87402 255 0 0
-22.3344 -49.0966 218.255 255 0 0
0.541009 0.887625 5.86666 255 0 0
2.38685 -1.40188 6.24924 255 0 0
0.604271 2.14301 5.09449 255 0 0
-1.11903 -1.95763 6.51574 255 0 0
4.33935 2.99266 10.8825 255 0 0
38.8974 -17.8749 76.9409 255 0 0
-0.0119528 0.863862 2.01832 255 0 0
0.258885 0.656718 1.55882 255 0 0
-0.146705 1.11983 2.7858 255 0 0
-0.964384 -1.62661 4.14016 255 0 0
5.7818 9.46119 37.1238 255 0 0
-178.06 198.536 494.543 255 0 0
-2.437 -3.79689 8.89674 255 0 0
7.51825 -23.8576 70.2211 255 0 0
15.4348 -21.4898 60.5097 255 0 0
6.87535 8.21511 24.2409 255 0 0
-16.8344 -7.52155 31.2498 255 0 0
35.8008 -24.4397 387.053 255 0 0
-0.0744063 0.574639 1.34746 255 0 0
-74.4643 34.7529 337.217 255 0 0
27.2473 22.1039 56.7457 255 0 0
0.928612 0.799538 2.84498 255 0 0
0.155054 -0.539896 1.64624 255 0 0
-11.5485 -4.55159 22.004 255 0 0
0.430983 -1.40963 4.486 255 0 0
-0.0497724 2.53586 5.59672 255 0 0
-0.358677 1.32465 3.13111 255 0 0
17.8219 -23.5484 60.6113 255 0 0
89.8624 65.4562 326.758 255 0 0
102.76 -64.7442 178.812 255 0 0
3.38198 -1.9376 7.71067 255 0 0
-0.669407 -2.15421 5.55296 255 0 0
-0.243509 0.188781 2.22981 255 0 0
-1.3423 -1.98827 9.18083 255 0 0
1.31621 0.797154 3.75233 255 0 0
5.32017 4.52153 12.0918 255 0 0
16.5512 -22.7284 64.7226 255 0 0
-13.0855 -77.5289 344.094 255 0 0
-86.4768 -35.7061 185.252 255 0 0
1.00012 -1.12802 2.86019 255 0 0
1 -0.883555 3.33746 255 0 0
20.2384 -16.3061 46.7963 255 0 0
-22.1832 16.0613 37.8538 255 0 0
-81.0937 96.1297 252.865 255 0 0
-0.0184955 1.47969 3.29653 255 0 0
15.7002 -23.5019 63.1436 255 0 0
25.5048 -20.8434 52.1588 255 0 0
-0.287654 1.61427 3.82085 255 0 0
-8.71499 8.39711 23.2206 255 0 0
3.15116 1.03692 8.50718 255 0 0
1.95244 1.67432 4.94404 255 0 0
3.94652 -2.9583 7.8654 255 0 0
-0.369944 1.49837 3.28064 255 0 0
0.404129 -2.27312 5.63337 255 0 0
-3.87732 19.9263 49.571 255 0 0
0.406048 0.824104 1.75087 255 0 0
47.4321 -20.7747 243.255 255 0 0
-0.835052 -1.33453 3.28543 255 0 0
-1.4473 -3.5629 8.535 255 0 0
-3.06722 -16.6011 42.775 255 0 0
3.40265 1.37912 8.17687 255 0 0
-1.33551 -15.9942 38.5889 255 0 0
2.65461 2.68867 7.9366 255 0 0
0.238501 0.80606 1.7462 255 0 0
-0.0167675 0.355209 1.04176 255 0 0
-0.226371 -1.03599 3.15368 255 0 0
281.837 -161.892 493.813 255 0 0
0.565071 -0.903508 2.21258 255 0 0
0.30722 0.100147 1.86712 255 0 0
-1.80933 -5.55381 20.6778 255 0 0
-0.0255172 -2.63564 8.19223 255 0 0
0.208106 0.589045 1.4374 255 0 0
-0.168565 -0.338665 4.19615 255 0 0
-0.0463675 -0.816152 1.98981 255 0 0
-0.339996 2.11698 4.54191 255 0 0
169.198 68.5896 344.939 255 0 0
-2.26548 2.63638 7.34708 255 0 0
0.38371 1.77817 4.17058 255 0 0
-39.2261 -27.1227 93.4021 255 0 0
-24.3055 20.2906 49.7481 255 0 0
68.5673 1.62788 138.032 255 0 0
6.34945 5.40933 14.2138 255 0 0
96.1538 -60.5202 167.383 255 0 0
-0.0198906 -3.36422 8.09236 255 0 0
-0.179167 -1.91729 4.90759 255 0 0
-25.4663 21.6378 52.1842 255 0 0
0.240581 1.4971 3.27583 255 0 0
15.7985 -23.4003 63.0041 255 0 0
47.3168 11.0727 126.952 255 0 0
8.7336 -6.80714 17.9552 255 0 0
-0.11696 0.947797 2.17067 255 0 0
-1.40019 -0.751828 3.78818 255 0 0
52.2775 6.98354 108.114 255 0 0
91.6682 -53.5979 165.511 255 0 0
1.26154 1.77485 4.87133 255 0 0
0.227761 0.589207 1.43257 255 0 0
2.03028 1.97877 5.29366 255 0 0
78.7931 10.0778 161.818 255 0 0
2.76023 -1.95442 8.39109 255 0 0
85.8193 67.9819 157.345 255 0 0
-0.459226 0.991723 2.16468 255 0 0
1.43232 0.983118 3.79778 255 0 0
3.20308 -2.30938 7.63143 255 0 0
2.73811 4.8458 13.4362 255 0 0
1.00292 -2.55867 7.20314 255 0 0
10.0093 -29.1729 114.735 255 0 0
18.4006 -14.9258 78.415 255 0 0
-7.74766 -28.3666 112.812 255 0 0
0.351342 -1.03572 3.39243 255 0 0
22.2768 11.8255 38.5287 255 0 0
-0.710664 -4.2803 10.0532 255 0 0
-53.2541 42.8677 95.5288 255 0 0
-25.3638 21.2302 51.969 255 0 0
0.314753 -0.902506 2.70001 255 0 0
0.463652 -1.8036 4.54397 255 0 0
0.452256 -0.618377 2.01428 255 0 0
30.6011 15.6576 95.0271 255 0 0
0.0161545 0.733413 1.69418 255 0 0
-0.115645 0.595415 1.45452 255 0 0
6.6567 5.45921 14.8666 255 0 0
-3.33877 2.78777 16.6726 255 0 0
-18.5229 44.5457 108.51 255 0 0
-0.0207017 0.640261 1.42798 255 0 0
-30.7272 74.5169 178.614 255 0 0
22.8732 -31.7558 139.675 255 0 0
17.2598 21.1106 50.8288 255 0 0
0.500937 0.825995 1.92488 255 0 0
0.656851 -5.60911 16.1813 255 0 0
-8.73722 7.62443 17.0767 255 0 0
0.659197 -1.4943 4.51066 255 0 0
0.741654 -0.761535 3.10123 255 0 0
14.5322 -24.9252 77.3006 255 0 0
0.0549953 0.513827 1.10151 255 0 0
0.105665 0.752435 1.68241 255 0 0
22.577 -28.1806 82.6479 255 0 0
0.799307 -0.746807 2.85143 255 0 0
2.63539 1.99555 7.59285 255 0 0
0.285185 0.742639 1.79831 255 0 0
3.51694 -31.2621 127.115 255 0 0
18.1353 -23.9919 61.6424 255 0 0
0.350865 -1.7855 5.59207 255 0 0
0.471466 -28.1537 95.8059 255 0 0
-0.36984 1.47757 3.28213 255 0 0
0.340041 -0.498638 1.62814 255 0 0
0.198838 -0.521218 1.56868 255 0 0
10.3082 56.8976 138.994 255 0 0
-0.51414 -7.24046 31.9376 255 0 0
0.895407 0.780978 2.56042 255 0 0
12.168 97.0984 262.58 255 0 0
-0.161185 -1.4519 5.62304 255 0 0
17.2787 -35.8651 101.262 255 0 0
-13.7451 13.6967 32.2263 255 0 0
4.44666 -0.538552 8.22565 255 0 0
26.9896 18.8228 68.5435 255 0 0
0.978731 1.0563 3.03654 255 0 0
2.74261 -2.00578 5.44271 255 0 0
1.28659 1.36294 4.69401 255 0 0
-5.96412 5.90319 13.9609 255 0 0
-3.63162 -41.3687 100.523 255 0 0
110.194 45.6833 264.202 255 0 0
-13.5405 19.3951 50.3035 255 0 0
0.252854 -3.54129 12.9477 255 0 0
60.6518 -40.0361 139.856 255 0 0
2.09345 2.07621 5.47165 255 0 0
0.989308 -1.04212 2.89311 255 0 0
-0.565973 -1.58812 3.7262 255 0 0
15.0944 4.90178 40.0849 255 0 0
0.968977 -1.08462 2.55474 255 0 0
2.19495 4.3571 11.9603 255 0 0
0.194431 0.654286 1.52199 255 0 0
-6.2624 -21.3321 50.8549 255 0 0
-6.70006 -23.0096 54.7856 255 0 0
-1.33078 -5.49205 23.713 255 0 0
-67.2653 68.0564 183.578 255 0 0
-0.496613 -41.1632 133.735 255 0 0
5.9975 -3.64484 13.9363 255 0 0
0.687757 -0.830036 3.02998 255 0 0
4.6583 -6.17489 14.4503 255 0 0
8.6861 -21.5694 49.5441 255 0 0
0.693551 -0.787496 2.47618 255 0 0
13.9484 -16.4635 43.2788 255 0 0
-0.14274 0.715075 1.76752 255 0 0
-0.365534 -1.24194 2.92293 255 0 0
0.770114 0.913289 2.37957 255 0 0
3.60074 -3.08353 8.50362 255 0 0
15.658 8.34854 27.1581 255 0 0
0.308833 -0.547581 1.78618 255 0 0
0.219489 0.606454 1.43175 255 0 0
2.15438 1.13702 5.22235 255 0 0
63.3825 -22.3465 127.872 255 0 0
-3.17213 -36.9613 90.4373 255 0 0
-10.3108 10.0609 23.1098 255 0 0
-1.0416 3.35084 7.55069 255 0 0
-1.93546 -9.50358 24.9143 255 0 0
0.538984 -1.54117 3.97548 255 0 0
2.55373 -2.06114 8.58038 255 0 0
106.384 92.7214 233.235 255 0 0
8.15796 -30.0025 118.746 255 0 0
-0.479652 0.711612 1.91676 255 0 0
0.920385 -1.30036 3.53968 255 0 0
10.7409 -9.47217 27.2953 255 0 0
16.111 -23.8466 59.5668 255 0 0
5.77859 3.45111 15.7201 255 0 0
6.00244 3.68551 14.0894 255 0 0
8.31594 11.2574 30.4827 255 0 0
0.558413 -0.696162 2.30861 255 0 0
1.8079 2.83772 7.84865 255 0 0
0.945411 -0.940585 2.99535 255 0 0
-1.19781 -1.98465 5.47337 255 0 0
-71.6957 62.6166 163.017 255 0 0
-0.632948 -1.57306 3.99355 255 0 0
0.595691 -9.48899 24.3496 255 0 0
0.637598 -1.22793 4.59171 255 0 0
-1.19813 1.85828 7.86283 255 0 0
-6.36171 6.40661 14.8118 255 0 0
0.383736 -26.0967 87.9615 255 0 0
1.42493 1.08577 3.76211 255 0 0
-0.737495 -2.25919 5.7001 255 0 0
1.53996 1.52764 5.23284 255 0 0
0.330181 -1.70337 4.12424 255 0 0
38.1765 -25.0754 90.6033 255 0 0
6.52959 4.09606 11.9558 255 0 0
-0.0154123 -0.591023 1.59673 255 0 0
-2.28648 -6.12784 25.9942 255 0 0
-140.079 177.399 471.563 255 0 0
29.2965 22.5807 107.989 255 0 0
0.0900906 0.724843 1.71446 255 0 0
5.06526 -20.6238 72.9374 255 0 0
5.5212 3.98121 11.9785 255 0 0
-0.593927 -1.55761 3.95111 255 0 0
0.190702 0.617161 1.40644 255 0 0
7.62111 -5.84558 16.9196 255 0 0
19.7897 -18.873 49.6863 255 0 0
3.40299 -2.33503 7.36699 255 0 0
-94.4986 76.1524 174.698 255 0 0
1.3752 -13.8923 51.9749 255 0 0
0.51323 -0.604232 2.56818 255 0 0
2.40279 1.66036 4.94267 255 0 0
2.5376 2.02422 6.21075 255 0 0
37.5525 -26.9226 93.7255 255 0 0
-0.132142 0.587722 1.29452 255 0 0
-0.715959 0.860919 2.32 255 0 0
2.67541 -3.21201 7.80904 255 0 0
-0.294734 -1.22696 4.13899 255 0 0
-16.373 5.40952 35.6728 255 0 0
1.65552 0.57879 4.58202 255 0 0
74.7567 42.64 126.102 255 0 0
-17.9338 -28.0003 137.012 255 0 0
20.3314 -21.536 53.7004 255 0 0
0.525766 -0.878739 2.13793 255 0 0
9.1602 7.20783 17.9619 255 0 0
