ply
format ascii 1.0
element vertex 319
property float x
property float y
property float z
property uchar red
property uchar green
property uchar blue
end_header
45221.9 -24193.4 89093 255 0 0
22185.2 -4765.27 61683.7 255 0 0
-127220 27011.8 -352601 255 0 0
45613.5 -25492.9 92483.5 255 0 0
45719.2 -25581.3 95154.9 255 0 0
40780 -23148.4 85291.2 255 0 0
37248.4 -21577.5 70249.1 255 0 0
-47434 4633.45 -362506 255 0 0
31350 -19099.7 58417.8 255 0 0
-508851 302434 -2.01817e+06 255 0 0
21637.1 799.006 143226 255 0 0
37983.3 -17812.7 105303 255 0 0
41199.3 -22314.5 79180.9 255 0 0
35257.1 -21505.6 64153.8 255 0 0
61760.2 -34996.8 122546 255 0 0
22641.2 -2006.12 133857 255 0 0
43334 -21360.5 117608 255 0 0
10040.9 -3563.06 26773.2 255 0 0
-13418.3 1116.58 -61899.9 255 0 0
34019.3 -17282.4 99040.3 255 0 0
32377.4 -9792.59 89573.7 255 0 0
17917.5 -9110.52 52245.6 255 0 0
-96497.9 66638 -171990 255 0 0
-11975.9 755.986 57140.6 255 0 0
34424.4 -19127.5 74036.9 255 0 0
77290.4 -44571.4 177750 255 0 0
-14393.2 616.074 56713.8 255 0 0
-31524.2 6409.55 62813.2 255 0 0
42166.9 -22413.5 116190 255 0 0
39706.5 -20804 80410.6 255 0 0
-28070.7 -3891.15 56351.9 255 0 0
5630.79 3229.32 16755.1 255 0 0
41300.7 -23298.9 97200.3 255 0 0
-60139.4 40386.8 -110601 255 0 0
45796.5 -24512.5 122211 255 0 0
-16846.3 -281.187 32917.7 255 0 0
5007.59 2213.01 17331.5 255 0 0
-3767.03 2604.64 18916.1 255 0 0
-294559 219807 3.12082e+06 255 0 0
13306.3 3010.02 100607 255 0 0
137768 -130471 -1.68499e+06 255 0 0
12222.5 6130.78 143185 255 0 0
-7441.65 -402.759 19394.3 255 0 0
-35555.9 24875.1 422391 255 0 0
36717 -8947.07 159683 255 0 0
4748.72 2121.57 16418.5 255 0 0
-25871.5 -8404.55 46635.3 255 0 0
15811.9 24471.9 330733 255 0 0
34059.4 -8974.97 148664 255 0 0
-336874 245804 3.4398e+06 255 0 0
-31662.6 9435.08 -126456 255 0 0
9870.95 21767.8 319162 255 0 0
-55036 13584 168317 255 0 0
22510.9 -3973.76 94999.7 255 0 0
-42001.9 -13628.9 75499.2 255 0 0
45753.9 -29978.8 75632.9 255 0 0
-12277.2 -271.654 42843.7 255 0 0
28892.8 -4102.48 200146 255 0 0
5038.5 2252.34 17061.8 255 0 0
368.577 2387.75 6000.63 255 0 0
-25241.3 10090.3 169186 255 0 0
59013.1 -38205.1 103693 255 0 0
-26344.6 -4426.69 47321.2 255 0 0
-69973.5 50301.8 -121473 255 0 0
-22404.2 -2795.16 42569.8 255 0 0
-3861.33 2711.16 18146.2 255 0 0
6870.14 7490.56 148274 255 0 0
-23623.6 29676.2 370157 255 0 0
15.9297 3528.19 14759.4 255 0 0
-26230.9 22653.3 -231344 255 0 0
10779.7 8333.86 132153 255 0 0
-26914.8 3900.99 61111.5 255 0 0
-29111.1 -7829.07 61790.8 255 0 0
38107.3 -20252.7 82066.1 255 0 0
24014.3 8920.63 -165476 255 0 0
-8685.35 -797.925 26173.6 255 0 0
-12814.2 -799.386 43856.2 255 0 0
55282.6 -35646.1 112385 255 0 0
13220.3 21689.5 268393 255 0 0
-13376.1 -148.192 52767.6 255 0 0
-9465.23 394.914 39919.5 255 0 0
72047.6 11458.5 -440003 255 0 0
75289.7 -9625.06 266483 255 0 0
-12426.3 559.552 52487.3 255 0 0
10162.4 -13802.7 -164939 255 0 0
-85340.9 63874.2 -154856 255 0 0
71394.4 -46714.7 145894 255 0 0
-44411.7 -110968 -2.11411e+06 255 0 0
-9578.59 -763.673 28057.3 255 0 0
5528.62 2146.88 16420.4 255 0 0
-12685.2 -783.321 35512.5 255 0 0
-12978.8 -884.919 44357.7 255 0 0
-25957.9 -864.223 82371.4 255 0 0
-8023.89 -650.845 23474.6 255 0 0
13327.5 5002.18 112485 255 0 0
116007 -23579.6 -845356 255 0 0
-10410.6 198.53 44228.5 255 0 0
-238394 56264.5 1.49575e+06 255 0 0
-35300.2 -5860.02 63083.7 255 0 0
-10982.6 -333.878 34740.6 255 0 0
6581.15 -10735.9 -121990 255 0 0
-2991.23 1220.08 6406.48 255 0 0
-2966.54 1208.51 6349.58 255 0 0
66931.3 -25532.9 206880 255 0 0
-10523.6 -85.159 29475.9 255 0 0
-28492.7 -1942.12 52242.9 255 0 0
-377210 82989.3 2.43443e+06 255 0 0
-19708.5 -1803.73 38379.1 255 0 0
-58411.1 14559.1 356334 255 0 0
13520.1 -1777.06 38393.6 255 0 0
-25995 -8771.4 50092.9 255 0 0
-26399.3 -8876.63 50785.5 255 0 0
4422.18 2674.02 15529.7 255 0 0
58510.9 -6029.43 -172898 255 0 0
-12980.6 -4340.66 24912.6 255 0 0
30435.1 211552 2.54644e+06 255 0 0
24502.2 -23067.7 -266326 255 0 0
-12.4956 7273.31 47142 255 0 0
-4093.58 3020.56 20026.2 255 0 0
5877.49 2174.36 16599.2 255 0 0
-19804.4 281.308 63635 255 0 0
-36498.7 7857.32 84725.4 255 0 0
-10121.2 -3479.66 22530 255 0 0
17408.3 8546.2 240202 255 0 0
31867.9 10858.8 -62363.3 255 0 0
-4183.98 3166.44 24088.1 255 0 0
-6968.45 -2635.37 15764.7 255 0 0
-34764.4 86057.2 860248 255 0 0
-5710.49 -2217.93 12515.4 255 0 0
10575.9 13023 94581.2 255 0 0
-10803.3 -1267.77 30718.6 255 0 0
39123.8 24324.1 594514 255 0 0
674.587 57441.5 -141461 255 0 0
51380.3 -22138.5 -474727 255 0 0
-30806.9 -4102.81 60036.1 255 0 0
-35442 28660.3 -100519 255 0 0
-5629.52 -6664.52 14832.7 255 0 0
42745.5 -7768.45 138912 255 0 0
-14066.2 523.021 35304 255 0 0
-285453 168211 -617089 255 0 0
63421.6 -42956.7 108469 255 0 0
-3559.11 3008.19 19740.2 255 0 0
12920.4 -23878.8 -302566 255 0 0
90332.3 -20951.9 311011 255 0 0
-4556.34 908.887 -121817 255 0 0
-15352.5 189.419 33153.4 255 0 0
-8209.14 -2567.91 19119.4 255 0 0
-44229.9 35512 -124770 255 0 0
-11034.4 -820.526 35046.7 255 0 0
-11339 -893.762 96828.1 255 0 0
-16352 28923 -200034 255 0 0
-3227.72 13998.8 177507 255 0 0
-10418.5 -3992.25 24190.6 255 0 0
-9377.87 20470 -127950 255 0 0
-17318.5 -1098.41 32950.8 255 0 0
-8656.33 32420.1 -274336 255 0 0
-7840.93 -2450.52 18255.5 255 0 0
-4162.95 3266.03 23038.9 255 0 0
4090.14 2030.48 16357.8 255 0 0
762269 -318758 2.67069e+06 255 0 0
-10593.7 28348.2 -163746 255 0 0
-37510.3 427.598 81578.1 255 0 0
-19735.7 -940.876 34930.7 255 0 0
-4121.87 -1428.81 11529.9 255 0 0
12199 140536 -344408 255 0 0
-11290.5 20167.5 -138842 255 0 0
49317.8 -10678.9 187828 255 0 0
5341.26 2246.85 17616.6 255 0 0
-1123.46 9369.64 58453.7 255 0 0
28096.3 -38733.3 -552444 255 0 0
38819.8 -8252.25 148571 255 0 0
-24387.9 11031.6 -88609.6 255 0 0
-3928.92 3073.52 18418.1 255 0 0
8705.66 -17635.1 -251329 255 0 0
-18451.8 49645.5 -281499 255 0 0
-14384 9331.68 -138019 255 0 0
-4085.81 2424.73 15947 255 0 0
-14492 750.92 26363.1 255 0 0
-13634.1 9049.46 -130806 255 0 0
-5554.78 -2804.58 14627.7 255 0 0
695268 -266611 -4.91207e+06 255 0 0
-3204.32 1048.79 6690.5 255 0 0
14503 12540.4 234370 255 0 0
-26296 -4985.69 52682.7 255 0 0
-35983.1 -9072.92 64915.5 255 0 0
-19580.9 368.796 46120.6 255 0 0
-32083.8 -11540.7 54478.2 255 0 0
51357.9 -11413.7 251939 255 0 0
6055.79 3619.77 15186.6 255 0 0
-28971.8 256.481 48661.9 255 0 0
-1732.81 141971 1.21365e+06 255 0 0
-29621.1 -6109.5 55399.2 255 0 0
-893.339 1425.55 -268944 255 0 0
-2944.76 1139.14 6327.96 255 0 0
486.869 48827.4 -115425 255 0 0
410874 36416.1 2.98611e+06 255 0 0
-24437.9 -548.02 -192088 255 0 0
997.373 56922.4 -177874 255 0 0
-10831.2 495.852 38320 255 0 0
-11298.2 -950.75 82776.6 255 0 0
-10841.8 41069.1 -179322 255 0 0
-2238.25 3449.82 25150.1 255 0 0
-221.651 244.354 -52169.6 255 0 0
-5684.07 -1836.47 13843 255 0 0
-2746.34 7164.86 42825.3 255 0 0
6692.65 3124.97 18616.3 255 0 0
-296303 99942.7 -1.49306e+06 255 0 0
-4509.32 3927.39 28065.5 255 0 0
-5412.87 -1696.23 13331.7 255 0 0
-25929.7 -1925.68 45931.7 255 0 0
-6256.09 56992.4 -221351 255 0 0
20683.1 -2760.19 88589.1 255 0 0
-5374.78 -1742.45 13136.8 255 0 0
-4774.32 138993 -328421 255 0 0
196761 -28729.8 682774 255 0 0
6145.8 2973.21 19316 255 0 0
5171.91 -2049.57 515828 255 0 0
-38729.4 25673.2 -89802.2 255 0 0
-11799.5 -1646.62 89077.1 255 0 0
-30382.6 25217.2 -103027 255 0 0
36109.4 -19095 84256.7 255 0 0
-7132.23 10816.8 81653 255 0 0
-12021.3 -10647.2 -99860.4 255 0 0
-11951.5 2565.06 -194154 255 0 0
4737.28 2664.01 15659 255 0 0
8600.19 6624.26 40033.1 255 0 0
-56150.6 -11081.5 109710 255 0 0
-77843 47091.3 -162192 255 0 0
-6360.84 -68.737 15963 255 0 0
-3401.62 -7477.59 -68391.8 255 0 0
9605.83 6975.89 46247.3 255 0 0
-304.608 2930.14 24700.9 255 0 0
6220.38 2866.89 17387.4 255 0 0
-2031.36 8166.93 58200.9 255 0 0
30144.2 -19172.9 49998.5 255 0 0
-21931.9 -3763 45877.6 255 0 0
-1009.01 37319.5 -94323.3 255 0 0
-25358.3 -5138.57 42406 255 0 0
7805.6 3217.34 21843.5 255 0 0
48153.4 19961 418910 255 0 0
6541.31 3156.32 15169.5 255 0 0
-3077.15 1031.94 6548.53 255 0 0
4571.27 4055.46 18479 255 0 0
-11075.9 46.2175 32291.1 255 0 0
-7198.52 79115.9 -206177 255 0 0
-3061.67 1196.55 7154.11 255 0 0
-8602.69 -8354.36 -217999 255 0 0
3189.03 2136.49 13894.1 255 0 0
10983.1 4562.07 24760.1 255 0 0
-3558.29 2232.74 14874.7 255 0 0
-15884.7 284.086 29216.5 255 0 0
-19031.8 -703.265 35245.1 255 0 0
-3563.68 5542.58 32098.4 255 0 0
19350.4 14764.1 -153313 255 0 0
-1090.97 30543.5 -71821.7 255 0 0
-2243.57 7548.35 63056.5 255 0 0
-3262.69 2845.05 11635.6 255 0 0
-3576.49 3419.75 15239.4 255 0 0
-41997.8 32051.7 -90110.1 255 0 0
8489.31 14185.2 97736.3 255 0 0
-58566.2 20218.9 -210295 255 0 0
-22564.2 -1902.84 172467 255 0 0
-15081.7 11282.1 -186102 255 0 0
28900.7 7393.46 54759.7 255 0 0
6597.87 3570.48 15066.3 255 0 0
-50538.6 9216.27 109962 255 0 0
-9936.8 -1128.88 31557.8 255 0 0
6124.64 3681.83 15013.1 255 0 0
-9819.82 202330 2.25786e+06 255 0 0
41361.9 31634.2 -325120 255 0 0
-7828.18 -7682.46 -198234 255 0 0
5904.32 3117.48 15109.1 255 0 0
-29875.8 -508.259 52787.7 255 0 0
-24916.3 3167.66 41544.4 255 0 0
5206.87 2980.76 14574.8 255 0 0
-6120.49 12376.2 -43822.2 255 0 0
41419.6 -8177.96 -221292 255 0 0
-34001.6 21728.5 -72210.1 255 0 0
17252.3 26741.2 -237409 255 0 0
-2917.04 2656.54 10014.3 255 0 0
-3229.56 1562.11 5508.14 255 0 0
-973147 -1.7314e+06 5.7251e+06 255 0 0
212430 -156027 353041 255 0 0
-25732.7 -6776.48 47299.6 255 0 0
12187.5 2355.61 -55525.2 255 0 0
4356.35 3021.21 14782.6 255 0 0
-97041.3 40278.7 -519486 255 0 0
-3513.33 -1271.32 -126642 255 0 0
-233028 80515.2 -747649 255 0 0
-26771.2 2448.67 54983.4 255 0 0
-6248.02 -5210.09 15805.4 255 0 0
-35638.6 -10418.9 63915.9 255 0 0
-2966.03 3549.54 15110.1 255 0 0
4778.22 2946.35 18098.9 255 0 0
-35312.9 -7320.81 67578.9 255 0 0
-34636.9 9139.01 77738.1 255 0 0
-9924.01 -1094.26 27235.5 255 0 0
-3547.35 2219.3 14873 255 0 0
-4067.94 3273.24 -62737.2 255 0 0
-15590.5 12229 -54183.7 255 0 0
-21450 17825.6 -68484.9 255 0 0
4402.26 2759.36 16256.4 255 0 0
4366.16 3502.11 18250.1 255 0 0
24261.5 2407.53 56914.1 255 0 0
-86774.4 87553.9 922377 255 0 0
-37854.5 -10837.7 76262.2 255 0 0
4982.53 2800.73 15503 255 0 0
69750.8 -53287.6 118359 255 0 0
18319.1 69416.9 511170 255 0 0
-19864.7 5411.63 43502.3 255 0 0
46860.1 96317.4 -353100 255 0 0
-2937.97 1353.85 6119.5 255 0 0
-672.197 30565.2 -113718 255 0 0
-122.398 -6363.07 -97111.2 255 0 0
-241085 189785 -428348 255 0 0
-9079.38 -9978.77 24946.1 255 0 0
-15996.1 52669 -206314 255 0 0
-181.682 2566.31 28150.2 255 0 0
-3393.94 2160.46 13139 255 0 0
