ply
format ascii 1.0
element vertex 351
property float x
property float y
property float z
property uchar red
property uchar green
property uchar blue
end_header
2346.77 -3397.3 12142.1 255 0 0
2389.85 -3735.29 12246.8 255 0 0
44902.6 -12657.7 91151.5 255 0 0
46960.6 -14850.3 81713 255 0 0
59401.7 -19119.9 103773 255 0 0
63429.1 -19549.1 124279 255 0 0
37193.4 -10746.3 69923.6 255 0 0
7062.24 1142.2 46454.4 255 0 0
44649.8 -13530.3 86937 255 0 0
7058.79 1145.86 46509.9 255 0 0
2223.66 -3869.68 12250.2 255 0 0
1979.58 -3174.67 12229.3 255 0 0
1966.47 -3460.18 12120.4 255 0 0
36417.7 -7079.38 91640.3 255 0 0
2024.99 -3250.72 12361.8 255 0 0
1938.38 -3124.76 12283 255 0 0
-2384.69 -739.547 11587.8 255 0 0
1907.84 -3484.68 11969.1 255 0 0
12131.8 333.741 53300 255 0 0
20366.8 1336.85 97092.3 255 0 0
10854.4 -612.484 57231.2 255 0 0
54287.7 -17288 102394 255 0 0
-5323.92 -5185.71 39299.6 255 0 0
-7318.51 -22938.4 86965 255 0 0
-367846 171656 -1.47188e+06 255 0 0
-114267 50894.9 -456706 255 0 0
-4112.47 -6858.2 15723.9 255 0 0
-14976.9 2358.65 41453.1 255 0 0
-2474.71 -1083.65 11425.7 255 0 0
-10520.4 42254.1 -143152 255 0 0
-4135.05 -6781.81 15414.8 255 0 0
-2395.51 -269.518 11056.2 255 0 0
38493.7 -9846.28 81074.2 255 0 0
-3286.53 -12837 53239.1 255 0 0
40497.8 400.135 146953 255 0 0
-3343.13 -1432.59 13147.2 255 0 0
71867.7 -7497.43 217961 255 0 0
42136.6 22793.9 455620 255 0 0
2119.27 -3300.87 12084.8 255 0 0
21165.7 -1479.19 69120.7 255 0 0
-3926.05 -15933.8 69097.7 255 0 0
18504.7 -27141.5 -346710 255 0 0
-37905.4 7815.34 330294 255 0 0
50845.9 -11669.1 106150 255 0 0
22481 -1108.53 69295.7 255 0 0
-4176.92 -1850.72 15894.9 255 0 0
-118374 25228.9 1.0291e+06 255 0 0
16343.9 -499.981 76171.2 255 0 0
14360.3 -693.143 56397.9 255 0 0
-50405.5 -78072.7 -915932 255 0 0
-21116.9 2045.64 175852 255 0 0
8097.88 1437 49192.5 255 0 0
-1837.52 -740.906 13963.5 255 0 0
-2146.83 -838.139 11468.1 255 0 0
-2096.52 -800.467 11169 255 0 0
273208 -124989 523747 255 0 0
-2048.8 -821.327 10929.4 255 0 0
-34089 15726.4 -103425 255 0 0
46110.6 99170.7 849682 255 0 0
-44854.8 7535.75 96051.3 255 0 0
-2621.19 -141.258 11067.1 255 0 0
14506.4 2767.87 69687.4 255 0 0
-57104.6 -45320.2 -525405 255 0 0
-34118.8 3252.02 69301.5 255 0 0
-37528.4 3606.05 82546.2 255 0 0
-8441.39 6230.43 181306 255 0 0
5982.61 -15015.7 -189804 255 0 0
20060.5 -389.821 60110 255 0 0
-94959 57942.4 -165698 255 0 0
-22802.6 -39050.9 -445115 255 0 0
2.31589e+06 1.60257e+06 1.79167e+07 255 0 0
96840.8 -10228.9 444559 255 0 0
-4351.46 -6479.41 15231.9 255 0 0
-31350.3 2475.66 63988.1 255 0 0
6428.67 -16031.2 -203815 255 0 0
55072.9 -5720.54 252937 255 0 0
-42301.8 -39010.9 -473914 255 0 0
-2397.41 -1020.66 11722.6 255 0 0
-361766 198373 -601705 255 0 0
31839.5 -131014 -1.5066e+06 255 0 0
-140941 81438.2 -237365 255 0 0
-42951.2 1739.37 106912 255 0 0
27985.1 643.943 82330.6 255 0 0
1219.95 16120.2 161453 255 0 0
-47271.2 122165 -489758 255 0 0
702.125 -3146.74 -35994.9 255 0 0
-90434.6 54888.7 -162989 255 0 0
-78374.1 13103.4 206811 255 0 0
-90037.7 6453.16 799236 255 0 0
3249.9 2689.45 8641.45 255 0 0
-42044.7 7014.64 110508 255 0 0
6282 -39505.6 151651 255 0 0
-3606.4 2691.72 13395.7 255 0 0
4891.75 -4649.25 18496.5 255 0 0
6854.72 -1243.32 15678.1 255 0 0
20043.4 66778.2 667493 255 0 0
223922 -178604 2.7857e+06 255 0 0
1831.44 -11829.9 45228.5 255 0 0
14658.9 3175.9 71465.2 255 0 0
-4434.96 2735.1 13828.4 255 0 0
-31913.3 1795.39 65303.6 255 0 0
-2179.28 -160.45 11010.9 255 0 0
-78907.6 38886.6 -149494 255 0 0
-2798.09 -256.565 11248.9 255 0 0
-33517.8 2178.12 72307.6 255 0 0
-754.495 -22751 91244.1 255 0 0
-38043 2926.18 85817.3 255 0 0
-25252.5 19539.1 -66635.9 255 0 0
-2071.04 -601.075 11195.6 255 0 0
-31908.3 17637.4 373993 255 0 0
-2730.84 2164 11381.3 255 0 0
-2477.96 -4207.8 20415.9 255 0 0
-16184.6 89213.8 -362876 255 0 0
-27117 -28419.1 -305273 255 0 0
736.382 3075.06 9507.52 255 0 0
-2383.13 -455.191 11310.3 255 0 0
-2829.02 2238.66 11799.7 255 0 0
-442.92 2808.66 8602.42 255 0 0
-53558.2 12368.6 152524 255 0 0
-3845.84 -9100.87 37097.9 255 0 0
-9654.78 999.383 20637.6 255 0 0
4552.21 -4446.32 18218.1 255 0 0
-3558.98 11620 -45135.9 255 0 0
-20658 4483.8 40751.7 255 0 0
268014 -197956 -2.9897e+06 255 0 0
21595.7 -3504.22 77738.1 255 0 0
1453.77 -3215.35 11870.4 255 0 0
-2514.31 -893.902 11231.8 255 0 0
38526.1 199838 -793885 255 0 0
60811.3 -12735 127226 255 0 0
-1930.6 -2477.13 12671.6 255 0 0
299338 -162701 -3.56793e+06 255 0 0
13095.8 26369 402980 255 0 0
19400.8 137.445 59302.7 255 0 0
3571.89 2723.64 8754.39 255 0 0
-37825.2 334.266 80737.1 255 0 0
-17320.6 57322 -222657 255 0 0
-39730.5 5701.84 87041 255 0 0
-28974.7 5017 59126.7 255 0 0
16095.3 1486.72 -185963 255 0 0
-2020.31 3394.11 14534.5 255 0 0
-4034.29 2560.7 13829.8 255 0 0
18946.4 20776.9 -249017 255 0 0
22599 -6352.08 99720.4 255 0 0
9330.97 4051.61 -22951.5 255 0 0
-2991.62 -2237.05 16594 255 0 0
-10373 1366.11 29889.1 255 0 0
-2493.02 2751.85 11169.9 255 0 0
-37359 2814.43 67678.1 255 0 0
-2430.57 -16741.4 85581.4 255 0 0
-7581.76 -258.06 56000.9 255 0 0
-71847.6 41324.7 -132264 255 0 0
-4031.53 -10393.5 41874.8 255 0 0
-2073.55 2233.69 10990.2 255 0 0
11799 4847.4 -92832.5 255 0 0
34427.3 -22714 215266 255 0 0
-5868.46 -2360.53 45468.8 255 0 0
38163.4 -151271 -2.30594e+06 255 0 0
-358089 240207 -603080 255 0 0
-34850.8 26142.5 -226134 255 0 0
-5849.94 -2328.28 15366.3 255 0 0
-8340.14 4661.24 -57393.5 255 0 0
4630.78 -42907.6 -576619 255 0 0
-36558.7 1146.59 77188.8 255 0 0
-4558.25 -255.939 15544.3 255 0 0
-2690.51 2723.54 13749.9 255 0 0
19949.2 -4710.12 -146927 255 0 0
18635.2 -605.632 60095.5 255 0 0
2996.85 2702.22 8152.69 255 0 0
2588.38 1789.46 8180.44 255 0 0
-4365.13 -945.991 13418.3 255 0 0
-2613.24 2474.7 12842.4 255 0 0
-41168.9 5303.64 91972 255 0 0
-26840.7 -117873 -1.56729e+06 255 0 0
-182190 132963 -300698 255 0 0
-82485.4 127361 -719774 255 0 0
-6179.29 -2563.94 16829.9 255 0 0
5825.94 10474.5 65701.6 255 0 0
-6064.52 714.959 -79078.5 255 0 0
3389.76 2155.72 8791.43 255 0 0
11593.5 -1255.44 56628.7 255 0 0
37032 -23161.1 217599 255 0 0
-5156.33 2640.27 14746.3 255 0 0
-74280.8 52676.5 -142216 255 0 0
2687.65 1917.66 8691.36 255 0 0
-31711.7 3209.89 83113.7 255 0 0
13067.7 -2895.77 49021.1 255 0 0
2393.28 -3755.01 12364.4 255 0 0
-37054.2 178.995 97932.3 255 0 0
23132.8 -1766.21 66622.6 255 0 0
2696.8 -3402.03 12844.9 255 0 0
20587.3 -5212.43 99888.4 255 0 0
-2567.82 1976.55 12330.5 255 0 0
-34084.6 11114.9 202259 255 0 0
-23381.7 4947.37 61431.1 255 0 0
13450.7 5706.89 84096 255 0 0
3058.2 -3676.35 13593.6 255 0 0
-10473.3 101138 -278664 255 0 0
-3.67061e+07 2.84875e+07 -6.46862e+07 255 0 0
-2656.66 42469.9 314486 255 0 0
-12671.1 3438.07 80983.9 255 0 0
-25.4016 -43.8322 271.307 255 0 0
3859.75 2658.77 8926.88 255 0 0
-73306.2 -3072.07 170064 255 0 0
-48353.7 20694.4 -98263.6 255 0 0
29031.3 -3165.44 84822 255 0 0
-18177.9 2471.38 -418206 255 0 0
30860.4 -8838.8 130570 255 0 0
-66504 28441.6 -135103 255 0 0
-3387.91 5295.89 30746.7 255 0 0
-94887.5 53110.4 -169366 255 0 0
-2664.81 -463.47 11544.7 255 0 0
-60855.4 35626.1 -167671 255 0 0
1449.49 74421.7 -268944 255 0 0
12771.8 11109.3 68817 255 0 0
-5131.13 9707.7 62922.7 255 0 0
-5197.22 -2090.54 14837.3 255 0 0
-8252.21 -3438.73 -79315.2 255 0 0
-3518.74 443.908 -79836.4 255 0 0
-4523.12 -1754.66 13387.3 255 0 0
423.521 2750.58 8980.89 255 0 0
96080.9 -46540.8 643020 255 0 0
-21880.8 160134 -483482 255 0 0
42094.9 -10295.6 -284977 255 0 0
-3952.65 6160.22 35964.3 255 0 0
-50079.8 306.925 124971 255 0 0
-73558.8 -64068.1 -532482 255 0 0
-3686.41 -1486.43 10628.5 255 0 0
-4982.83 -1864.32 15082.8 255 0 0
-24747.5 601.061 47061.8 255 0 0
411962 15648.1 -1.00097e+06 255 0 0
11457 -2852.91 56972 255 0 0
-5089.28 -1932.38 16848.8 255 0 0
-35441.7 -17220 -467070 255 0 0
-6139.65 -2325.57 40569.1 255 0 0
-32381.9 10883.1 87764.9 255 0 0
-51265.2 -553.911 112120 255 0 0
-8586.25 12775.7 -101554 255 0 0
1600.35 2618.3 8309.87 255 0 0
-379765 92613.7 -941735 255 0 0
-45336.5 13679.1 -147755 255 0 0
2316.02 -3610.16 12502.6 255 0 0
-53557.2 27513.4 -135172 255 0 0
-48606.2 5674.1 124695 255 0 0
-264485 197868 2.39463e+06 255 0 0
46865.1 -9585.67 112796 255 0 0
-41414.8 49501.5 528078 255 0 0
-2644.86 2620.69 11173.9 255 0 0
-121336 -5564.99 295213 255 0 0
-101069 49839 -209208 255 0 0
-2406.59 2315.97 10715.8 255 0 0
-4743.31 -2087.52 15731.5 255 0 0
3800.41 2376.5 9383.67 255 0 0
-29044.2 8390.02 -153692 255 0 0
3423.94 1714.32 8418.25 255 0 0
-2468.63 2364.76 11008.9 255 0 0
20035.8 -9181.33 -175307 255 0 0
556834 205161 4.56957e+06 255 0 0
46036.5 -23837 367589 255 0 0
-35613.5 3445.99 63446.9 255 0 0
-2374.73 -771.264 11388.1 255 0 0
-10093.2 100409 -227893 255 0 0
-46361.3 14909.8 -138877 255 0 0
1437.62 2746.93 9005.7 255 0 0
-3819.4 -3945.21 19811.1 255 0 0
56466.5 -15374.5 101493 255 0 0
-9853.15 97197.1 -222557 255 0 0
16285.7 14254.9 87355.5 255 0 0
5721.95 7985.92 50022.5 255 0 0
-75907.4 -217.29 184175 255 0 0
5657.56 76544.6 543403 255 0 0
18103.1 27525.6 170355 255 0 0
-1942.32 -25507.8 91829.6 255 0 0
81735.6 -8558.1 214756 255 0 0
-30412.8 22262 -119628 255 0 0
193895 114006 1.61088e+06 255 0 0
-37621.1 5548.65 67029.6 255 0 0
3748.56 2836.74 8798 255 0 0
-1851.08 3481.73 15211.6 255 0 0
-3645.49 9119.18 60205.9 255 0 0
-23004.4 193.878 65204.4 255 0 0
39720 -8825.04 127195 255 0 0
-5070.19 -5661.84 16064.1 255 0 0
-14023.3 5523.39 38820.6 255 0 0
5400.16 9539.38 68927.5 255 0 0
-6270.46 -7031.69 19912.5 255 0 0
3050.31 2085.21 7450.98 255 0 0
-48815.7 10730.1 -155895 255 0 0
-3062.06 3977.58 25818.1 255 0 0
-32739.6 4905.38 58331.8 255 0 0
169644 -103496 277571 255 0 0
124813 70144.5 1.00258e+06 255 0 0
-75779.9 1874.72 -546024 255 0 0
2981.8 2004.09 8216.48 255 0 0
14739.2 63740.5 -175579 255 0 0
14657.3 -11.2405 46618.7 255 0 0
-3503.78 21451.4 147764 255 0 0
-30185.3 5557.75 68975.2 255 0 0
4403.13 10381.8 69270.6 255 0 0
-29167.7 -69.3286 -158494 255 0 0
-2848.92 -1722.71 13625.4 255 0 0
3114.17 2699.47 8015.04 255 0 0
4321.38 3081.96 9978.21 255 0 0
-4019.18 2638.46 13479.8 255 0 0
-603.827 20029.9 -187334 255 0 0
-4723.8 2193.14 14687.9 255 0 0
-43132.4 13453.8 112404 255 0 0
-14279 3270.19 37361.1 255 0 0
4753.22 6709.32 40631.4 255 0 0
-1731.22 -19537.7 -324315 255 0 0
-78528.4 5423.81 215957 255 0 0
2853.35 1636.74 8238.64 255 0 0
-4689.23 -3914.13 15790.1 255 0 0
11872.2 -31109.3 441094 255 0 0
-40338.6 1964.31 70634.1 255 0 0
-1.33635e+07 1.32756e+07 -7.78256e+07 255 0 0
21925.2 248852 -887850 255 0 0
52565.7 -11362.5 122085 255 0 0
3111.53 2053.97 8500.01 255 0 0
-2547.25 -718.607 11556.4 255 0 0
-45125.3 28909.5 -86554 255 0 0
2702.2 2645.9 8479.88 255 0 0
-2770.69 2550.28 11125.8 255 0 0
-4951.27 2230.45 15174.6 255 0 0
-6982.82 -78352.1 279571 255 0 0
-2344.87 -653.212 11839.6 255 0 0
-230216 176867 -2.19227e+06 255 0 0
3539.39 1570.26 9228.49 255 0 0
-25.0078 -75.653 274.395 255 0 0
26239.6 32262 237703 255 0 0
-2161.39 2769.31 10494.8 255 0 0
-54393.9 -1773.88 142261 255 0 0
-41989.2 -1053.7 73628.7 255 0 0
13777.6 -7056.32 127878 255 0 0
-29007.9 1504.69 50076.8 255 0 0
-631.754 -13966 63134.9 255 0 0
-8452.02 33704.6 -161213 255 0 0
15263 95.2025 58193.4 255 0 0
16834.2 -22403.2 -218324 255 0 0
-3268.52 -5271.07 23394.7 255 0 0
195239 -57582.5 -1.8165e+06 255 0 0
3038.11 2606.28 8608.22 255 0 0
-54538.2 42178.7 -519920 255 0 0
-24.8246 -85.7491 275.831 255 0 0
176443 -159112 850262 255 0 0
21.5981 -4902.94 18140.2 255 0 0
-1031.46 8698.86 53679.7 255 0 0
33303.3 43341.3 378944 255 0 0
3163.6 2470.4 9112.51 255 0 0
-11995.4 8697.6 -129750 255 0 0
-266190 27112.4 614614 255 0 0
