ply
format ascii 1.0
element vertex 857
property float x
property float y
property float z
property uchar red
property uchar green
property uchar blue
end_header
33894.1 4236.29 72011.2 255 0 0
34810.9 2513.4 73398.2 255 0 0
-70568.8 -12552.8 -157482 255 0 0
32258.8 6093.11 71979.5 255 0 0
31195.9 3004.79 63107.7 255 0 0
43090.8 4457.53 99777.4 255 0 0
-13614 4250.67 29522 255 0 0
26756.1 3461.35 64278.8 255 0 0
-11352.6 4519.9 28757.7 255 0 0
26707.8 -12520.9 148398 255 0 0
115011 -21361.9 585705 255 0 0
-9969.08 -2934.51 48995 255 0 0
16865.7 6837.39 51822.7 255 0 0
26280.5 2023.14 57609.9 255 0 0
25086.8 2648.48 56157.2 255 0 0
34966.3 3170.15 59639.7 255 0 0
-17355.9 4056.22 36023.1 255 0 0
-15890.2 -2935.37 57973.3 255 0 0
72803.5 8578.9 149134 255 0 0
158631 -2797.44 820566 255 0 0
-10281.7 -2662.16 45781.4 255 0 0
-119456 -16810.5 -360147 255 0 0
70792.6 -23175.1 304862 255 0 0
550146 39194.7 2.01653e+06 255 0 0
-6373.98 -2783.86 40153.8 255 0 0
-2056.66 -20662.5 52691.6 255 0 0
-16698 4609.33 29678.9 255 0 0
99206.3 34246.9 417016 255 0 0
-7101.19 -10337.3 49114.9 255 0 0
-18915.2 -11943 48738.1 255 0 0
-20856 -4052.4 37443.1 255 0 0
-4236.31 -10102.7 50293.2 255 0 0
-12171.9 -7401.5 54535.5 255 0 0
-12457.3 34.413 46011.5 255 0 0
-190954 5921.03 -745969 255 0 0
-19959.7 3070.7 45185 255 0 0
15482 6508.99 46377.8 255 0 0
59210.7 -35370.6 318386 255 0 0
-11915.4 -8431.98 44692 255 0 0
-19729.2 -10554.2 37166 255 0 0
155419 39427.1 621207 255 0 0
-14333.3 -8688.18 45163.7 255 0 0
-12340.7 -12103.8 48107.3 255 0 0
25383.6 1735.61 51540.4 255 0 0
-16886.3 4202.91 33211.8 255 0 0
-17067.3 4548.38 38098.4 255 0 0
-16487.6 2624.06 37651.5 255 0 0
24883.8 9304.75 61355.5 255 0 0
-8912.98 -21623.2 61273.9 255 0 0
-12031.2 3607.83 49081.9 255 0 0
-3561.92 -16370.3 45966.5 255 0 0
131910 13.5519 526682 255 0 0
-13090.9 -12533.6 46796.5 255 0 0
-18660.4 -11241.2 58758.4 255 0 0
-19418.4 -1627.04 34438.9 255 0 0
-13844 -8831.59 48419.7 255 0 0
-14420 -3314.89 61461.4 255 0 0
-3875.92 -16104 47748.5 255 0 0
-3738.89 -15040.2 48926.7 255 0 0
267905 3125.26 924431 255 0 0
62933.5 12582.9 162385 255 0 0
-17139.1 3913.2 34866.1 255 0 0
-8337.42 -5048.71 37447.6 255 0 0
-10245.1 -6566.2 52094.2 255 0 0
-17633.1 -1548.48 31318.1 255 0 0
134409 -123662 734853 255 0 0
-3604.68 -16446.2 45517 255 0 0
-19335 4270.73 38089.1 255 0 0
-4284.22 -12360.4 42754 255 0 0
40725.4 7022.44 83026.4 255 0 0
-15157.9 -13155.7 65988.8 255 0 0
31045.5 -24173.4 182341 255 0 0
-11871.1 -8743.2 39918.2 255 0 0
-24342.1 -3157.67 56110.7 255 0 0
-20211.1 -9053.76 33548.2 255 0 0
10257.1 83255.4 -230062 255 0 0
-10845.5 -15960.3 47619.8 255 0 0
30743.3 -28108.1 165114 255 0 0
-15674.3 -1791.32 37536.8 255 0 0
-6792.92 55.1534 45710 255 0 0
-19683.3 -8708.26 37983.4 255 0 0
-19510.6 -6329.82 36186.4 255 0 0
-19919.1 -3562.27 36920.2 255 0 0
9060.84 -11366.3 62719.9 255 0 0
5660.33 -17125.6 72213.2 255 0 0
-18237.4 -3543.71 43113.7 255 0 0
-22702.7 -4098.69 85646.1 255 0 0
-13207.9 -13903.2 54845.4 255 0 0
-8474.56 -12633.5 44685.6 255 0 0
68410.1 3075.48 357152 255 0 0
-11068.6 4202.98 26071.7 255 0 0
-16112.7 -8125 38068.1 255 0 0
90710.4 22926 224787 255 0 0
135481 -12917 666778 255 0 0
-5396.73 -3467.22 50290.1 255 0 0
-14948.2 4282.24 35237.1 255 0 0
-13747.1 -2394.64 46733.3 255 0 0
32215.2 -24772.6 188926 255 0 0
5178.54 479.82 71710 255 0 0
-19418.4 -3177.69 33483.3 255 0 0
37466.1 -40102.1 338372 255 0 0
1902.31 1094.87 65434 255 0 0
-5260.37 -3424.39 49861.2 255 0 0
-18128.1 -7471.95 53956.5 255 0 0
-11264 1976.37 43161.5 255 0 0
20263.7 8059.35 56647.4 255 0 0
-18989.8 -6610.66 44974.5 255 0 0
-88206.6 -22807.1 -216699 255 0 0
-4261.02 -9280.84 44221.4 255 0 0
-13266.8 -3404.57 30186.2 255 0 0
179809 45886.3 452927 255 0 0
-18181.8 -13131.7 56136 255 0 0
90651.5 22067.2 231915 255 0 0
16076.1 -20691.1 128770 255 0 0
9342.64 -9658.22 57687.3 255 0 0
-18087.1 4203.19 33200.3 255 0 0
-12710 -5134.58 40369.9 255 0 0
-8613.66 -17628 51656.6 255 0 0
-7774.88 -8901.3 44508.3 255 0 0
147068 34393.6 589797 255 0 0
-4484.15 852.764 48214.4 255 0 0
-12611.6 -7165.92 43531.2 255 0 0
-13457.3 5419.77 37401.5 255 0 0
-7193.02 -9426.81 62176.5 255 0 0
-4416.45 -4129.48 42529.1 255 0 0
21828.2 -21370.6 129595 255 0 0
45122.8 1162.54 167722 255 0 0
21949 9185.26 59908.3 255 0 0
-4730.05 -4431.56 45904.6 255 0 0
-600507 -45616.8 -2.3809e+06 255 0 0
20388.9 -22429.7 158272 255 0 0
-30625.3 -13519.1 74760.4 255 0 0
-9166.41 710.303 48987.3 255 0 0
-14390.2 -7958.12 31374.9 255 0 0
-18584.3 -2710.71 34158.4 255 0 0
-17734.1 -10210.1 41583.2 255 0 0
-14778.4 996.579 43959.9 255 0 0
-3676.2 -3395.61 50385.8 255 0 0
-17719.4 -3575 40332 255 0 0
-13188.9 -8104.31 65238.6 255 0 0
-3434.43 -3171.16 47866 255 0 0
-7006.5 6527.23 44788.5 255 0 0
-18573.1 -3909.86 38148.6 255 0 0
-16949.3 -9696.79 39795.7 255 0 0
-336484 17823.1 -1.34763e+06 255 0 0
-463767 -140331 -1.82984e+06 255 0 0
111184 12203.8 613554 255 0 0
-3472.77 -19409.5 52660.4 255 0 0
-16366.5 3444.57 35495.2 255 0 0
-17382.1 -9464.09 37846 255 0 0
-15548 -14404.1 45214.6 255 0 0
-5451.31 -3256.01 47359 255 0 0
-15091.2 866.516 34601.6 255 0 0
60381.9 21081.2 270992 255 0 0
-19606.1 -5577.81 64103.4 255 0 0
-11881.8 -12654 60976.9 255 0 0
-8479.59 -2630.39 47869.6 255 0 0
-2207.77 2307.14 8835.91 255 0 0
-3418.71 1409.87 30807.9 255 0 0
-1.44854e+06 -84316.4 -5.11379e+06 255 0 0
16094.2 8190.48 49443 255 0 0
-4938.23 2086.22 44745.8 255 0 0
4765.48 -8993.05 68742.9 255 0 0
-5050.31 -1247.97 43298.8 255 0 0
-13759.3 -16184 48137 255 0 0
-209127 -48461.2 -831109 255 0 0
-17715.7 -3637.76 56543.9 255 0 0
7729.18 -16855.6 76215.5 255 0 0
-18157 -5058.08 43435.5 255 0 0
-10650.1 4855.12 29019.8 255 0 0
-7274.81 -12236 43518.2 255 0 0
-17390.4 -7448.92 40747.7 255 0 0
-13033 44.6895 53919.2 255 0 0
-10686.6 -10732.8 42774.5 255 0 0
4836.38 -1806.74 72154.6 255 0 0
-3312.52 -10401.5 49312.3 255 0 0
-9516.32 -7254.93 48684.7 255 0 0
-3153.98 -10045.9 47911.1 255 0 0
-19713.8 -5710.15 35164.5 255 0 0
-14929.7 -7032.64 50781.3 255 0 0
-12227.8 -12303.2 49287.9 255 0 0
-19809.6 -787.126 35980.4 255 0 0
-22088.4 -5241.65 39848 255 0 0
-15584.6 -11282.8 45638.8 255 0 0
-22619.8 -6211.94 38859.3 255 0 0
-6790.2 75.053 63335.6 255 0 0
-11169.6 -1.62156 45415.7 255 0 0
-2731.54 2753.4 10052.5 255 0 0
9284.97 -13436.8 90884.5 255 0 0
2057.56 -4942.82 53792.2 255 0 0
-20871.6 -3326.76 101072 255 0 0
-13122.2 -10473.9 45193.2 255 0 0
-3500.74 -7160.29 51459.2 255 0 0
-11355.8 6064.97 43894.8 255 0 0
-9354.02 -1996.11 50276.9 255 0 0
32146.8 12035 84335.2 255 0 0
-13386.5 4320.85 50119.1 255 0 0
-3640.67 -14659 40074.3 255 0 0
-20582.5 6570.61 41663.9 255 0 0
15420.6 7891.64 47993.7 255 0 0
-20410.3 -5614.37 35135.7 255 0 0
13798 5323.68 45734.8 255 0 0
-10731.4 3476.06 40093 255 0 0
-16747.2 3805.2 36223.2 255 0 0
-11103.5 3695.73 41349.8 255 0 0
-15349.6 4844.79 35196.3 255 0 0
-3202.2 -7277.95 52282.4 255 0 0
-3469.86 -7051.48 50514.6 255 0 0
-17946.7 -3119.09 36019.9 255 0 0
4633.41 -4396.87 67988.5 255 0 0
-9441.67 -9008.22 38734.8 255 0 0
-19805.3 -1248.69 48820.2 255 0 0
-18301.5 -10759.4 37282.8 255 0 0
-12190.8 -7321.7 57064.7 255 0 0
-18510.8 -3480.46 44880.5 255 0 0
2.16497e+06 -95344.6 9.65278e+06 255 0 0
-9009.24 -11855.9 52797.8 255 0 0
-17673.9 1378.83 40982.4 255 0 0
-14246.7 -4758.9 48415.9 255 0 0
-7453.76 -21428.1 83565.5 255 0 0
-7249.34 3349.07 26624.1 255 0 0
26490.9 -21241.1 154072 255 0 0
-10469.5 -202.923 42018.2 255 0 0
-13404.5 4227.06 30507.9 255 0 0
-4206.04 -14294.2 52650.4 255 0 0
-2564.57 -18536.4 47796.1 255 0 0
48999 6893.88 82308.3 255 0 0
13161.2 4109.17 89051.6 255 0 0
-2859.16 3031.9 11941 255 0 0
-73296.6 -6512.9 -135995 255 0 0
-18046.3 -2283.55 32158.5 255 0 0
-20379.1 -6865.37 42420.4 255 0 0
-20462.8 -4874 36752.4 255 0 0
-5875.69 -11461.2 52303.2 255 0 0
-9044.58 -17547.3 54200.8 255 0 0
-15761.2 4710.72 34655.6 255 0 0
-18390.6 -3101.49 43607.4 255 0 0
-4468.15 -1321.16 45317.4 255 0 0
-16426.1 -13559.8 46257.6 255 0 0
-12453.2 -7825.01 41169.4 255 0 0
-7380.11 -3415.96 44390.9 255 0 0
-9091.69 2648.13 15437.2 255 0 0
8382.7 -18135.1 87663 255 0 0
36449.8 11707.1 191468 255 0 0
-8895.69 688.051 15429.1 255 0 0
-2951.5 -20099.5 51774.8 255 0 0
-15658.6 4366.44 29816.1 255 0 0
21942.2 8346.58 58461.9 255 0 0
-15589.2 -5542.92 44830.4 255 0 0
-19646.9 -1861.67 40616.1 255 0 0
-14564.4 4602.65 33159.6 255 0 0
-20064.2 -12150 47854 255 0 0
7121.98 -6853.6 198582 255 0 0
-3597.41 169.649 54153.6 255 0 0
-10398.1 -8060.72 42015.3 255 0 0
-25145.7 -9365.55 64703 255 0 0
-8947.39 -1852.56 17954.1 255 0 0
-13778 4735.81 33762 255 0 0
-25343.2 -12777.5 46151.3 255 0 0
118927 26702.7 459190 255 0 0
-17661.1 4667.78 36487.5 255 0 0
-17547.7 3096.57 32397.8 255 0 0
-5045.26 6698.66 43289 255 0 0
-15179.4 4541.82 29682.5 255 0 0
33430.8 -3364.67 133922 255 0 0
-11114.6 -3026.51 51321.3 255 0 0
16534.3 25937 230872 255 0 0
-14573.2 -4949.31 44890.2 255 0 0
-16460.1 4484.97 30106.6 255 0 0
1701.96 2026.57 59077.6 255 0 0
-9788.58 -7569.34 39324.5 255 0 0
-16057.5 434.719 39539.2 255 0 0
2363.86 -12436.5 60079.6 255 0 0
-11526.5 4777.75 47396.8 255 0 0
5601.16 5827.57 75426.1 255 0 0
-24461.7 -9943.02 44722.5 255 0 0
-13427.3 -10764.6 46476.9 255 0 0
20910.3 8534.5 60334.3 255 0 0
65608.8 9769.3 252424 255 0 0
-11084.8 -7163.67 62537.2 255 0 0
-18014.1 -2282.57 36577.5 255 0 0
-7.9417e+06 -1.45808e+06 -2.98254e+07 255 0 0
-4936.38 -15673.2 52040.9 255 0 0
4256.82 5158.04 45301.7 255 0 0
-9901 -17510 52669.4 255 0 0
2930.49 1869.46 60891.9 255 0 0
2486.26 2739.64 50389.9 255 0 0
186680 47022.1 699752 255 0 0
-14392.1 -5191.18 41558.2 255 0 0
31249.2 3088.98 159837 255 0 0
7396.27 3443.25 55443.6 255 0 0
2775.97 3014.62 57136.7 255 0 0
-17788 -3839.75 45331.4 255 0 0
35171.3 9769.9 57921.3 255 0 0
-10133.6 5710.34 39107.1 255 0 0
-15897.5 733.673 38861.8 255 0 0
-15074.6 -3410.94 29717.9 255 0 0
40928.1 18592.7 210963 255 0 0
-17038.2 4318.31 29710.8 255 0 0
298451 86918 767936 255 0 0
2596.15 -17065.3 70640.1 255 0 0
-11764.2 7581.05 47740.2 255 0 0
-8156.97 -14175.7 42127.6 255 0 0
-17166.8 7596.88 49369.9 255 0 0
2993.29 2038.57 66950.3 255 0 0
-76312.5 -97743.6 315083 255 0 0
2645.95 1353.76 49092.6 255 0 0
-27213.4 -10887.4 49794.4 255 0 0
-9199.06 -3264.51 30556.5 255 0 0
2614.08 -16579.1 66921.5 255 0 0
-18395.9 -4181.73 43403.7 255 0 0
526005 11982.9 2.20684e+06 255 0 0
2707.72 1565.49 54652.8 255 0 0
-14555.8 5452.13 43584.5 255 0 0
-2659.42 2493.33 8355.31 255 0 0
-16738.1 -9190.46 44552.9 255 0 0
-15870.3 -12749.6 41912.1 255 0 0
-13961.7 -4286.87 40081.4 255 0 0
-13848.8 889.783 47852.2 255 0 0
-9894.14 -12025.8 50835.2 255 0 0
-16473.1 4650.54 35616.1 255 0 0
-1880.09 -17819.9 46686.9 255 0 0
-9374.02 5814.34 42864.3 255 0 0
-6306.05 284.318 10985 255 0 0
2141.4 -11252.5 62133.1 255 0 0
-4698.55 778.874 23942.2 255 0 0
-11190.5 1155.16 43814.5 255 0 0
63410.8 13386.4 128538 255 0 0
-2609.54 2442.29 8170.34 255 0 0
26354.7 -14955.5 128797 255 0 0
-12075.5 -4212.51 27508.7 255 0 0
2372.46 -4707.68 50367.4 255 0 0
-8687.17 -4569.73 22656.6 255 0 0
-3470.62 2567.28 9037.2 255 0 0
1459.97 3721.96 58638.1 255 0 0
-11184.1 5399.38 35312.1 255 0 0
-4295.88 -11181.6 51143.2 255 0 0
-10417.5 1618.13 27273.7 255 0 0
-160463 -6569.09 -781430 255 0 0
5592.53 -869.066 69689.3 255 0 0
-4265.69 -15902.9 44241.1 255 0 0
-7323.63 2107.53 43980.1 255 0 0
-13757.5 -1502.48 49375.8 255 0 0
-17057 167.632 50756.5 255 0 0
-19578 -4963.42 36276 255 0 0
-5545.27 193.598 46342.8 255 0 0
-10092.1 2819.15 28533.7 255 0 0
-16283.4 -8492.76 53182.2 255 0 0
2204.74 -7861.23 60083.9 255 0 0
129134 187584 1.23349e+06 255 0 0
-7972.98 -3675.56 38671.1 255 0 0
-6992.06 -21168.3 55180.8 255 0 0
-17176.8 -3805.01 43100.2 255 0 0
-16632.1 349.881 37392.5 255 0 0
-17632.6 -1832.28 38087.9 255 0 0
-16087.9 929.038 39785.6 255 0 0
5495.62 -14087.6 77332.6 255 0 0
245.996 -4938.37 50893.4 255 0 0
4898.47 7684.77 49879.2 255 0 0
-15636.3 1769.19 37995 255 0 0
-16337.7 -7470.14 44938.8 255 0 0
-9077.95 -11237.3 53275.5 255 0 0
-2630.95 2488.18 8238.94 255 0 0
1027.95 -5584.99 59824.1 255 0 0
-13958.2 7506.04 47588.8 255 0 0
10554.9 5981.59 55538.9 255 0 0
12789 -21799.4 104714 255 0 0
22185.4 13829.3 99529.1 255 0 0
2313.32 5455.78 92608.1 255 0 0
-17006.1 1233.99 38143.9 255 0 0
12981.4 11604.4 76564.6 255 0 0
-8997.89 -5224.28 48873.9 255 0 0
-28142.1 462.611 63612.2 255 0 0
-18164.3 371.639 40693.1 255 0 0
-15194.9 8042.86 54838.1 255 0 0
-9508.99 3887.09 41388.3 255 0 0
-16112.2 262.29 36682.1 255 0 0
-10497.9 -8735.97 51831.9 255 0 0
239.652 1184.13 46429.2 255 0 0
-18717.9 964.496 34933.6 255 0 0
-16885.8 -2542.19 37930.1 255 0 0
9036.48 3841.44 36178 255 0 0
15053.8 11660.4 77979.1 255 0 0
-10879.4 2346.93 43206.4 255 0 0
2043.83 -13898.3 57794.4 255 0 0
-55680.1 -18827.3 -153158 255 0 0
5768.09 2516.81 63691.9 255 0 0
140724 47392.9 401518 255 0 0
-15356.5 -6887.63 50004.4 255 0 0
-19911.8 -4398.16 34063.1 255 0 0
-15329 -8108.99 61904.5 255 0 0
-5588.57 5088.28 48751.4 255 0 0
-23016.1 8816.13 110313 255 0 0
1357.15 -9969.25 65838.8 255 0 0
13009.6 -23657.8 123643 255 0 0
-9512.46 9188.79 68088.9 255 0 0
6131.48 -6484.21 75962.1 255 0 0
-16578.4 554.909 37016.8 255 0 0
-36519.6 -12896.7 -105531 255 0 0
-15674 3937.53 29691.7 255 0 0
-8938.45 -1928.87 46911.1 255 0 0
3267.59 -9828.56 65725.8 255 0 0
27202.9 15238.2 113749 255 0 0
-13033 -8803.9 37495 255 0 0
-30233.4 -15695.5 55244.4 255 0 0
-13655.9 1565.89 35531.7 255 0 0
-19926.6 -11982.4 39214.2 255 0 0
-62433.4 -13841.7 -189371 255 0 0
-7090.48 6954.34 54591.7 255 0 0
40899.5 8068.28 84575.8 255 0 0
-93815.5 3886.6 183985 255 0 0
287.137 -3293.88 93631.8 255 0 0
2118.61 -4348.57 60884.5 255 0 0
49916.1 2094.26 284749 255 0 0
-15375.9 1479.4 40920.4 255 0 0
-6063 6809.24 46357.5 255 0 0
-3531.35 174.424 46995.2 255 0 0
-16114.4 1330.41 30332.5 255 0 0
-16632.8 -11476 46336.8 255 0 0
5818.6 -23786.7 90040.1 255 0 0
-4024.96 2369.01 36242.7 255 0 0
-4003.77 2347.93 7679.84 255 0 0
-1220.67 2421.88 41507.7 255 0 0
-4524.1 2585.39 39538 255 0 0
-12053.9 -6526.94 53860.8 255 0 0
5369.53 2702.61 53874.8 255 0 0
-16624 1602.2 44688.8 255 0 0
-8084.2 3684.51 18060.9 255 0 0
1336.51 -4578.06 124502 255 0 0
-19174.6 -3336.35 42574.2 255 0 0
-11752.9 -15135.6 43719.2 255 0 0
-19893.8 -998.739 41509.7 255 0 0
-3786.92 -2969.81 38059.4 255 0 0
-19947.5 -542.052 36205.3 255 0 0
3243.23 -2595.83 70020.5 255 0 0
-22737.7 -13033.5 55836.5 255 0 0
-5188.28 4157.54 19825.3 255 0 0
21869.1 8771.67 52436.5 255 0 0
5849.27 5232.94 34692.7 255 0 0
14667.1 6018.53 87141.5 255 0 0
-13067.6 -12897 49278.1 255 0 0
-15896.6 4895.62 29801.1 255 0 0
-5750.17 5329.92 43882.5 255 0 0
-15678.5 4959.44 29029.9 255 0 0
-19133.1 -3673.41 36682.1 255 0 0
-14989.8 5109.87 38158 255 0 0
-5608.5 -16491.1 45819.3 255 0 0
-13011.8 146.483 58537.5 255 0 0
-4157 -7814.87 47570.6 255 0 0
4368.82 3143.41 17051.7 255 0 0
-16409 -6059 44725.7 255 0 0
-16557.8 -8103.43 45435.6 255 0 0
-3699.54 7036.92 50094.9 255 0 0
-20679.8 3238.65 40940.6 255 0 0
97934.6 601.504 459063 255 0 0
-17323.3 3343.23 36288.7 255 0 0
-7563.23 -18590.6 49946.2 255 0 0
-11139.8 -2465.24 51961.6 255 0 0
-19388.2 -15056.1 50030.5 255 0 0
-18629.2 1747.66 47136.7 255 0 0
-141.398 -5840.65 56785 255 0 0
-132709 -14132.6 -557952 255 0 0
-3533.14 6734.88 47776 255 0 0
-8675.08 -13127.7 47431.1 255 0 0
5971.02 3038.48 50646 255 0 0
-8074.85 -18579.8 61904.5 255 0 0
-4709.77 -15909.4 45174.4 255 0 0
-19215.5 -1376.02 44875.6 255 0 0
-19942 5024.6 37380.2 255 0 0
-13404.4 -9667.1 34562.3 255 0 0
-13509.9 5980.33 44168.9 255 0 0
-76716.6 29326 365057 255 0 0
-17922.4 185.769 39499.1 255 0 0
-12169.1 5602.07 39677.8 255 0 0
58263.6 3766.66 136585 255 0 0
-9800.45 -4230.45 51497.5 255 0 0
10607.8 13859 -41592.9 255 0 0
-3641.02 2581.58 9058.04 255 0 0
-14947.3 -1051.19 34880.8 255 0 0
5738.7 -9643.34 69214.8 255 0 0
-807789 -148851 -1.47602e+06 255 0 0
-12069.4 4839.1 45709.2 255 0 0
-17803.4 -3715.07 37672 255 0 0
-17718.3 -6468.95 176563 255 0 0
-16273.4 -3879.38 35344.1 255 0 0
97105.9 235.04 408466 255 0 0
-14199.3 -9633.29 49556.6 255 0 0
-17825 -314.819 37506.3 255 0 0
-18598.7 866.162 37275 255 0 0
-17190.7 -7012.63 32626.1 255 0 0
-20442.8 -5543.98 37526.6 255 0 0
-19805.5 -1779.29 33658.8 255 0 0
-7184.42 -843.398 41902.2 255 0 0
-15187.6 -3073.9 42173.3 255 0 0
-685782 -137080 -3.40686e+06 255 0 0
-18162.5 -8968.03 36898.4 255 0 0
-7225.28 -9970.02 40989.1 255 0 0
-3791.24 4179.19 77874.2 255 0 0
-12239.3 -4389.96 32155.2 255 0 0
42614.5 12353.1 193190 255 0 0
-29228.9 -13999.9 51070.8 255 0 0
-3508.05 -14660.3 53661.2 255 0 0
6269.88 -12650.2 74334.2 255 0 0
-13441.8 4108.59 28391.8 255 0 0
-15728.9 -9861.41 34593 255 0 0
-16811.3 1024.36 33732.7 255 0 0
-14779.1 539.527 35332.1 255 0 0
-14750.1 -7199.47 55749 255 0 0
-21722.9 -7105.08 37080.8 255 0 0
-14325.2 -12108.1 65003.6 255 0 0
-21707.8 -5906.6 39855.6 255 0 0
-17344.1 -16879.6 92340.3 255 0 0
-10916.8 2476.99 45588.7 255 0 0
-224208 -70969.4 -743630 255 0 0
-23442.1 -5797.37 41210.2 255 0 0
410379 66572.6 731105 255 0 0
36994.3 2897.46 165081 255 0 0
-7541.74 -16207.8 65558 255 0 0
-1695.77 -19190.5 50888.2 255 0 0
-36733.4 -2926.97 -69519.1 255 0 0
40468.5 6518.1 68869.6 255 0 0
-114078 -40616.8 -336930 255 0 0
-19998.1 2542.9 40598.9 255 0 0
-15579 -16793.9 53170.9 255 0 0
114716 24125 317919 255 0 0
1576.2 5888.69 41741.4 255 0 0
-13230.8 1457.96 40535.5 255 0 0
-17962.3 2162.82 37428.5 255 0 0
5471.96 -10930.9 66303.3 255 0 0
317.992 4149.84 44770.8 255 0 0
-14778.8 -3187.97 49844.2 255 0 0
-3313.44 5080.21 45758.7 255 0 0
-5837.87 2635.02 13055.2 255 0 0
-13168.4 2033.27 42699.7 255 0 0
22046 14999.7 102016 255 0 0
-19347.7 -2988.89 40939.3 255 0 0
-52361.1 -1599.3 -94014.8 255 0 0
-16372.5 -8598.54 44880.5 255 0 0
-8645.42 -6330.24 48464.9 255 0 0
-11661.2 443.135 46810.6 255 0 0
-4302.96 6498.42 58969.9 255 0 0
-18050.5 767.714 34558.4 255 0 0
-11943.2 -19166.4 54684 255 0 0
-3355.5 2666.68 9577.06 255 0 0
-17525.9 -13950.1 44849.8 255 0 0
-524815 -94404.8 -996068 255 0 0
-18842.5 893.852 35964.8 255 0 0
65120.7 2226.14 155856 255 0 0
25845.7 9813.37 60000.3 255 0 0
-2697.45 2463.43 7993.38 255 0 0
-17846.7 -8608.71 36546.4 255 0 0
-8045.7 -21365 65950.4 255 0 0
14745 19866.1 124695 255 0 0
16356.5 -117408 443846 255 0 0
-7967.59 -12690 48977.7 255 0 0
5476.23 1349.09 68042.3 255 0 0
-13134.6 5619.32 40634.7 255 0 0
-6152.35 -16142.5 45219.5 255 0 0
-15825.3 -1861.74 36915.9 255 0 0
3137.84 -27853 88337.8 255 0 0
562.419 -17612.6 63285.7 255 0 0
-29926.3 10458.5 104481 255 0 0
-20717.7 -776.473 36599 255 0 0
-11063.3 -14643.2 45759.6 255 0 0
-17438.2 415.567 37383.6 255 0 0
-15111.4 662.557 29105.9 255 0 0
-5554.09 3659.72 17838.1 255 0 0
-16736.6 -6184.54 41404.8 255 0 0
-12162.3 -6611.65 47830.1 255 0 0
-16718.6 -11176 36248.5 255 0 0
-17808.8 2124.64 32712.7 255 0 0
193775 44996.7 366467 255 0 0
12261.2 -20520.8 101583 255 0 0
-17486 -3092.38 37030 255 0 0
1706.76 -19815.6 65149.8 255 0 0
2216.07 4534.34 21099.7 255 0 0
-4838.98 2694.09 48580.2 255 0 0
-55067.2 9125.93 188582 255 0 0
-20847.5 -10247.6 42778.9 255 0 0
4802.08 -8494.93 58996.5 255 0 0
233.791 -9734.26 60985.8 255 0 0
-24143 -7886.47 41087.9 255 0 0
-19492.5 -1552.42 37452.1 255 0 0
-15627.8 -10478.4 33874.9 255 0 0
-4476.91 -9304.6 38946.9 255 0 0
-17797.5 -1889.64 37426.3 255 0 0
78409.2 17938.1 147311 255 0 0
-42480.8 -21717.4 75687.4 255 0 0
-73539.7 -10268.8 -198132 255 0 0
-635.479 1370.31 37134.9 255 0 0
-14174.3 1893.84 41151.7 255 0 0
-10537.1 -16257.4 63817.6 255 0 0
-19311.8 546.959 41359.4 255 0 0
3600.04 -13702.5 66677.9 255 0 0
-19416.5 -1347.22 37628.7 255 0 0
1771.12 -18830.8 71825.9 255 0 0
-1954.77 1185.93 49852.2 255 0 0
-21374 -7862.08 44774 255 0 0
-8206.08 -10593.2 43180.9 255 0 0
-2951.08 2283.07 5689.11 255 0 0
-11639.1 -6359.34 48150.1 255 0 0
-2721.11 2111.87 5236.57 255 0 0
-17787.2 6244.47 44258.4 255 0 0
5450.98 -4523.51 79345.5 255 0 0
-6523.06 5887.21 44894.2 255 0 0
-14898.6 1628.74 26998.2 255 0 0
-11456.8 1234.82 41425.5 255 0 0
-7274.05 1271.23 20700.7 255 0 0
-19558.7 -10137.4 74958.4 255 0 0
450.168 -14038.6 83366.8 255 0 0
3578.56 -16801.8 64483.5 255 0 0
-6885.3 -6161.38 43538 255 0 0
-19313.8 -13232.3 43233.4 255 0 0
-11826.2 -15517.2 44322.9 255 0 0
9282.96 9187.47 76428.4 255 0 0
-10919.2 -2597.52 43699.2 255 0 0
-5612.29 6066.1 42809.1 255 0 0
-5916.9 -12328.5 47085 255 0 0
10419.8 13353.1 85557.8 255 0 0
-6715.9 -5577.06 40909 255 0 0
-16929.2 -6386.03 48265.8 255 0 0
-15026.2 -9443.93 33683.4 255 0 0
-8240.5 -9159.28 33854.7 255 0 0
-10009.1 -2312.05 39452.8 255 0 0
-8206.74 -12715.5 49801.4 255 0 0
-8547.37 1483.9 24220.7 255 0 0
-13400.2 -3413.04 52467.4 255 0 0
4806.5 7877.45 55453.5 255 0 0
-3163.47 -20788.6 59615 255 0 0
-13080.6 -15040.7 47778.7 255 0 0
-15389.9 3292.52 50928.8 255 0 0
-3399.48 2873.67 9249.19 255 0 0
-13900.3 -7413.07 47885.3 255 0 0
4900.85 1963.91 42811.3 255 0 0
3999.85 -36805.4 139215 255 0 0
424380 77012.4 1.60672e+06 255 0 0
56579.5 7151.52 263397 255 0 0
-15478.9 3196.17 51224.2 255 0 0
-14582.9 2834.91 48931.5 255 0 0
-14274.2 4322.76 26670.9 255 0 0
87950.7 -50102.3 255336 255 0 0
187963 51140.7 684933 255 0 0
-7946.22 -8098.05 42660.2 255 0 0
-6162.06 6958.35 45963.9 255 0 0
-8214.65 -290.499 48180.8 255 0 0
-17143.1 -3336.1 34124.7 255 0 0
-16373.1 -4365.61 31595.5 255 0 0
-13493.8 2873.11 44629.5 255 0 0
-5679.33 5111.84 39776 255 0 0
-7449.37 -14992.3 54589.3 255 0 0
-3979.38 -3864.93 44226.1 255 0 0
-16997 6381.49 36718.8 255 0 0
-7831.32 3352.61 43569.2 255 0 0
-9733.54 -10407.9 51741.4 255 0 0
-9743.86 4394.01 53401.2 255 0 0
1920.4 -22649.7 69315 255 0 0
-8906.61 1826.49 47335.5 255 0 0
655.214 8569.66 59093.1 255 0 0
-17004.4 -1060.45 36722.1 255 0 0
-17497.2 2045.28 32991.8 255 0 0
-14316 -808.64 45550.3 255 0 0
6657.21 -69295.9 219710 255 0 0
312401 108990 977785 255 0 0
-11793.9 -10605.6 36343.7 255 0 0
-22247.9 -13068.8 42666.1 255 0 0
1373.16 -13786.6 64268.8 255 0 0
-11364 1611.91 41948.8 255 0 0
-1865.76 6985.06 50244.5 255 0 0
-7359.71 -6021.33 45775.5 255 0 0
-5622.25 -4718.81 40454.5 255 0 0
-1723.78 -15957.7 50940.2 255 0 0
-22295.2 -3809.13 37662.8 255 0 0
2795.85 -16017.6 72196.5 255 0 0
828.754 -17472.4 51274.8 255 0 0
-10461.7 -2136.25 40577.7 255 0 0
-4068.15 1519.87 41779.9 255 0 0
-8682.89 -9687.99 35685.5 255 0 0
-7469.25 -15614.6 42969.4 255 0 0
-17613.5 -2261.37 38619.5 255 0 0
-13371.9 -14717.7 45843.8 255 0 0
-11634.3 -4661.77 58252.7 255 0 0
1149.22 5600.09 35809.6 255 0 0
-10149.9 150.204 49237.2 255 0 0
-7556.07 -1030.89 45667.2 255 0 0
29436.3 3206.57 50949.5 255 0 0
-9771.08 -25846.9 79941.5 255 0 0
1.25078e+06 -747124 3.98786e+06 255 0 0
4913.67 -3354.11 69701 255 0 0
6382.3 -11452.8 57199.7 255 0 0
-1921.18 6857.59 49080 255 0 0
-8345.89 1512.43 44161 255 0 0
32592.6 11260.9 70274.4 255 0 0
-11561.6 -10111.5 61030.7 255 0 0
-17647 -8470.99 35773.6 255 0 0
-6975.81 -17467.7 46329.9 255 0 0
-10687.3 -1188.65 41238.9 255 0 0
784.517 3509.94 41238.9 255 0 0
2604.24 -10509.7 52728.5 255 0 0
-23066.1 -5951.93 49101.3 255 0 0
-6193.19 -10081.3 39274.8 255 0 0
-17241.8 -2800.18 43157 255 0 0
5279.9 3198.07 13160.5 255 0 0
9269.11 8906.33 70440.3 255 0 0
-8166.24 -5042.85 54462.7 255 0 0
-2599.72 7722.08 49606 255 0 0
-7809.29 -10941.2 44143 255 0 0
2155.85 -7306.19 69289.9 255 0 0
23896.8 544.419 112035 255 0 0
8592.29 2588.94 70933.9 255 0 0
-5215.48 2030.99 52309.8 255 0 0
1817.91 -23197.6 107452 255 0 0
-7820.98 4438.85 32459.4 255 0 0
159148 9511.88 303997 255 0 0
-8317.27 -3265.77 46974.8 255 0 0
-16144.4 978.189 43028.7 255 0 0
-6364.24 2390.29 36714 255 0 0
6173.32 -10548.5 64790.5 255 0 0
1793.57 -18767.7 69444.5 255 0 0
2775.78 4233.03 44486.8 255 0 0
-4154.81 -9545.56 51627.7 255 0 0
-8465.17 -13910.3 40295.4 255 0 0
2865.17 -20808.3 73985.3 255 0 0
-23073.9 -780.417 40460.4 255 0 0
-15917.2 4455.05 39192 255 0 0
-16406.5 4877.47 34078.9 255 0 0
-6869.98 3799.93 19531.2 255 0 0
2840.14 3993.17 41303.2 255 0 0
-22739.4 -14161.1 47165.2 255 0 0
-10321.5 7041.39 50210 255 0 0
-14879.1 819.936 40091.7 255 0 0
54372 15606.6 233437 255 0 0
11800 -10427.9 95678.6 255 0 0
-7059.4 2265.33 11985.3 255 0 0
-7102.72 2710.77 40852 255 0 0
-20710.2 -23777.5 76684.9 255 0 0
-22849.8 -1973.32 43680.8 255 0 0
-8917.68 -1246.29 53962.4 255 0 0
-1582.34 -20012.4 58067.9 255 0 0
37988.7 8513.4 176625 255 0 0
-7842.26 -16717 46282.6 255 0 0
-12215.6 -14018.5 44618.4 255 0 0
-16183.8 141.687 39123.1 255 0 0
-4026.18 -6622.88 45253.2 255 0 0
-7803.58 -17870.7 48720 255 0 0
-4626.9 4512.77 29021.8 255 0 0
-15539.2 4238.07 54040.8 255 0 0
-5780.72 3061.23 13252.1 255 0 0
-19080.2 -6388.61 38540.6 255 0 0
-11222.4 -6138.04 22601.1 255 0 0
10208.1 5902.86 26071.4 255 0 0
-44258.2 25041.5 -153063 255 0 0
-2601 2865.4 41437.9 255 0 0
-14100.3 -1909.56 40380.4 255 0 0
-59156.5 -642.965 -98246.7 255 0 0
-9794.72 8878.08 52313.1 255 0 0
-16552.9 -3404.11 32543.4 255 0 0
914.309 2060.81 59168.9 255 0 0
11186.7 -11392.4 90844.7 255 0 0
-9163.73 3306.51 59318.3 255 0 0
-98.3573 -17886.4 60878.5 255 0 0
-6959.11 -406.666 44870 255 0 0
-16004.5 -9093.17 45751.1 255 0 0
-5495.87 924.413 45773.8 255 0 0
-11453.9 -11179.5 35620.1 255 0 0
-11792.6 -17003.2 48675.2 255 0 0
-2561.3 -1481.53 44345 255 0 0
6304.74 3820.13 15686.3 255 0 0
31981.7 65142.4 -236709 255 0 0
-14655.3 -6277.76 30071.7 255 0 0
-16865.3 3792.39 41404.8 255 0 0
-3775.04 -5280.5 48357.6 255 0 0
630.077 -17961.4 62224.7 255 0 0
108.162 7628.2 59712.2 255 0 0
-11338.9 2482.97 41295 255 0 0
-4508.35 2479.54 8057.05 255 0 0
-14037.7 -9902.2 34701.9 255 0 0
-4102.8 -4997.41 59384.7 255 0 0
-20190.7 -19728.9 58049 255 0 0
-4537.88 -9411.01 33858.8 255 0 0
-18626.4 -275.553 50468.5 255 0 0
-12579.6 5868.53 41010.7 255 0 0
13769.1 13399.7 69535.6 255 0 0
-17545 -9640.61 35855 255 0 0
-5262.9 -8636.94 54255.1 255 0 0
-15739.8 2490.47 38285.8 255 0 0
-59477.5 -14781.6 -185382 255 0 0
-10418.5 -11786 39082.5 255 0 0
-159140 7553.75 -549761 255 0 0
-28184.6 -15629.8 57672.6 255 0 0
-13016.6 -4613.97 47700 255 0 0
87170.4 22917.8 152771 255 0 0
-27026.6 8527.11 48719 255 0 0
-7938.03 -13420.8 51231.6 255 0 0
-14956.7 -23.6381 37626.4 255 0 0
-17751.5 -4611.4 37270.5 255 0 0
19665.1 17112.1 112242 255 0 0
18.32 8676.01 56755.2 255 0 0
-17982.6 -8402.98 35860.2 255 0 0
57300.4 6505.54 272504 255 0 0
2070.43 -17048.7 60842.8 255 0 0
30272.5 4097.75 -184790 255 0 0
12990.6 -18320.3 102507 255 0 0
-24296.1 1839.45 50752.4 255 0 0
-18255.4 -52.8236 39276.1 255 0 0
-18563 -2869.83 47830.1 255 0 0
3720.74 -706.051 71160.9 255 0 0
865.068 -4983.7 71679.1 255 0 0
-10955 1349.42 44045.4 255 0 0
-20043.7 -5972.57 44660 255 0 0
1433.82 -18366.8 65286.5 255 0 0
-6892.49 -5874.28 38770.4 255 0 0
10540.2 -11031.7 88175.1 255 0 0
-13459.6 -12826.4 41284 255 0 0
-835.413 7660.38 539402 255 0 0
-12745.4 -12391.7 39486.6 255 0 0
10674.3 -16997.1 87712.4 255 0 0
-2951.54 2229.4 5668.78 255 0 0
968588 117977 3.43269e+06 255 0 0
913.956 -857.601 67295.9 255 0 0
-19356.9 -9308.49 37376.8 255 0 0
-2597.99 2640.25 9209.65 255 0 0
-31208.5 -13117.3 93414 255 0 0
-3963.99 3371.15 15109 255 0 0
11138.8 10303.4 78601.8 255 0 0
15391.5 -15404.8 126315 255 0 0
15015.3 -1540.09 122373 255 0 0
-2903.24 2205.85 5585.1 255 0 0
-3193.46 1996.2 52466.3 255 0 0
861.851 -4257.32 58537.5 255 0 0
-1883.78 8066.57 62288.5 255 0 0
-15120.5 776.687 40921.8 255 0 0
2810.93 3431.05 36950.9 255 0 0
10709.9 9552.25 52903.2 255 0 0
6015.8 2676.19 80546.5 255 0 0
-156.046 578.111 41313.5 255 0 0
-4829.37 -15274.3 65807.5 255 0 0
20722.4 -4844.74 -1.87956e+06 255 0 0
-19668.1 -5032.33 35541.9 255 0 0
-5841.11 -8072.07 73691.9 255 0 0
-91001.3 -1116.85 443293 255 0 0
-13279.5 4517.63 25945.1 255 0 0
6544.97 4103.88 17899.6 255 0 0
458.471 -13179 85355.5 255 0 0
2891.28 -17721.7 62949.7 255 0 0
-6499.78 -6111.95 40960.1 255 0 0
-3367.43 3315.8 12772.2 255 0 0
-14687.3 12.9283 40135.7 255 0 0
-4000.59 2272.39 9022.34 255 0 0
5098.41 2949.88 61849.1 255 0 0
-5055.92 2775.86 9048.83 255 0 0
-83080.2 14801.6 238226 255 0 0
-3151.66 2917.45 11912.1 255 0 0
-3194.63 4690.5 57688.6 255 0 0
18406.5 10315 81370.2 255 0 0
9.77322 7683.2 50561.7 255 0 0
-17331.7 1825.54 48400.9 255 0 0
-5688.89 7197.14 43969.2 255 0 0
