ply
format ascii 1.0
element vertex 1430
property float x
property float y
property float z
property uchar red
property uchar green
property uchar blue
end_header
13.2306 -24.8128 95.1278 255 0 0
67.4935 -46.2444 286.308 255 0 0
-0.00037391 0.271273 2.32438 255 0 0
-0.47777 1.53482 3.99322 255 0 0
-0.778733 -0.347444 2.41683 255 0 0
-209.564 -46.3138 487.782 255 0 0
4.55717 -20.7106 52.3866 255 0 0
-12.6746 -27.2667 132.905 255 0 0
-209.864 113.333 426.748 255 0 0
-0.884183 1.48611 3.98883 255 0 0
-52.64 -23.0253 132.861 255 0 0
-2.80843 -27.6676 76.3735 255 0 0
-40.7148 -19.0793 80.9881 255 0 0
-0.541505 -0.555467 2.70919 255 0 0
-13.4067 -22.4052 59.852 255 0 0
-50.1745 -23.158 112.844 255 0 0
-95.1201 34.9214 349.994 255 0 0
-4.84246 2.80611 10.5405 255 0 0
37.3724 95.5139 300.539 255 0 0
2.65994 -24.8422 77.5464 255 0 0
-8.05547 -33.33 155.679 255 0 0
-50.6382 -38.3544 205.473 255 0 0
29.5547 -24.769 74.1705 255 0 0
-4.02356 -23.8411 63.4138 255 0 0
0.220834 0.099343 3.50228 255 0 0
175.782 26.3125 407.62 255 0 0
-22.511 -39.5108 214.706 255 0 0
0.122325 -0.217274 1.65449 255 0 0
-22.5045 -27.3368 94.4349 255 0 0
0.56074 -0.488504 5.44847 255 0 0
0.593879 -0.794069 3.06933 255 0 0
18.3354 -23.2614 54.2471 255 0 0
-18.7293 -22.7123 78.1592 255 0 0
137.022 36.6573 309.909 255 0 0
29.0227 1.77361 60.2439 255 0 0
-7.37162 4.9284 18.399 255 0 0
-4.75693 2.92691 11.8095 255 0 0
-58.144 -20.1832 107.448 255 0 0
-19.1534 -24.557 66.7833 255 0 0
-183.017 121.616 383.224 255 0 0
9.41984 -23.6151 66.7318 255 0 0
-26.0669 -20.085 47.307 255 0 0
-0.197849 -0.238997 1.37332 255 0 0
15.2518 -24.1412 62.71 255 0 0
0.283274 -0.682353 2.51908 255 0 0
-120.457 79.9663 251.796 255 0 0
35.7359 -26.4594 78.7461 255 0 0
-1.84383 3.26257 220.506 255 0 0
-23.8078 14.2288 55.6625 255 0 0
126.781 3.81648 267.275 255 0 0
-13.0447 -0.0331558 26.37 255 0 0
135.468 -79.2515 445.908 255 0 0
-46.2488 25.4389 182.195 255 0 0
24.7365 -22.3282 61.6233 255 0 0
144.201 -60.3499 307.717 255 0 0
-14.6595 -32.5314 156.035 255 0 0
-29.8001 -22.933 68.5178 255 0 0
68.2695 123.059 287.68 255 0 0
10.4327 -26.2361 73.4771 255 0 0
-43.2099 -61.9663 347.916 255 0 0
9.61731 -24.1217 67.4374 255 0 0
-0.00296602 -0.00976722 1.00169 255 0 0
-0.212156 0.460205 1.7561 255 0 0
-0.46459 0.527352 2.20421 255 0 0
11.0036 -17.3053 50.8841 255 0 0
-41.879 44.3633 198.19 255 0 0
0.165111 -0.550001 1.29637 255 0 0
22.8401 -6.5208 59.141 255 0 0
0.364614 -0.841208 2.29805 255 0 0
-3.8735 1.79305 13.0356 255 0 0
-6.27668 -11.6616 37.2498 255 0 0
-16.1759 -19.0001 43.8381 255 0 0
90.0375 -33.1629 163.117 255 0 0
-20.3692 11.2835 77.6194 255 0 0
-19.5502 -21.5902 55.9758 255 0 0
0.082961 -0.994668 3.87002 255 0 0
-11.6359 -30.6017 121.286 255 0 0
10.72 -23.2769 99.1199 255 0 0
0.431478 -0.716819 2.16909 255 0 0
22.5029 -20.1282 54.5449 255 0 0
-41.4267 -37.2896 153.861 255 0 0
-0.605939 -0.503601 2.70258 255 0 0
0.0290407 -0.161968 1.26455 255 0 0
-20.2267 -25.1896 124.335 255 0 0
-121.172 -58.4747 443.34 255 0 0
-35.8738 -25.6811 111.471 255 0 0
-0.151022 0.841586 1.81278 255 0 0
-3.11677 -18.8605 45.7989 255 0 0
39.0508 -19.8094 90.2317 255 0 0
0.658803 -0.907806 2.84397 255 0 0
11.1054 5.73076 60.0426 255 0 0
43.4431 -29.189 151.409 255 0 0
-0.0491098 -2.64223 10.8167 255 0 0
-0.177165 -3.42066 8.87594 255 0 0
-30.2244 -27.2968 111.152 255 0 0
-104.159 11.7561 188.9 255 0 0
-0.573705 1.15171 2.66933 255 0 0
-42.0048 -31.7759 146.759 255 0 0
-71.4892 -24.6303 133.002 255 0 0
-0.00147443 0.367143 1.25864 255 0 0
185.672 -42.3209 374.323 255 0 0
-254.322 -8.85701 479.628 255 0 0
3.10253 -2.36546 6.0503 255 0 0
18.7984 -28.2807 109.922 255 0 0
-14.7385 -23.4923 67.0033 255 0 0
1.62414 -24.2566 85.0651 255 0 0
-19.8152 -24.4466 127.994 255 0 0
-23.0237 -12.7552 101.151 255 0 0
43.393 -38.9164 137.898 255 0 0
-2.69961 -1.49649 14.9235 255 0 0
55.2895 -28.1086 100.52 255 0 0
6.58883 -2.61605 13.0734 255 0 0
26.5189 -24.4933 62.0387 255 0 0
0.276027 -0.682862 2.49841 255 0 0
3.81215 -20.9871 49.1436 255 0 0
105 176.429 430.674 255 0 0
12.6941 3.73188 22.0171 255 0 0
-0.488218 -1.27927 6.68867 255 0 0
6.59063 -22.0139 55.5862 255 0 0
-16.2713 -38.1847 174.619 255 0 0
-68.5132 -26.1221 154.24 255 0 0
-72.4375 -25.938 149.641 255 0 0
17.1014 -6.33114 36.0481 255 0 0
61.381 -20.5314 108.268 255 0 0
-31.4512 -17.5384 139.167 255 0 0
39.705 -23.1757 65.3511 255 0 0
-0.361841 2.13406 7.48014 255 0 0
6.51374 -25.6614 103.809 255 0 0
223.874 -43.4953 461.612 255 0 0
-280.469 -43.8806 494.111 255 0 0
17.6977 -7.53176 39.2988 255 0 0
-0.839481 -0.66821 2.3917 255 0 0
0.0968142 0.448842 1.42906 255 0 0
41.7759 -16.8895 80.6488 255 0 0
65.8048 -33.7943 121.091 255 0 0
10.3614 -5.26575 19.3423 255 0 0
17.0689 -12.6355 30.8189 255 0 0
14.3779 -5.91501 36.0507 255 0 0
-14.2854 -25.3511 60.4083 255 0 0
0.25328 0.380012 1.64813 255 0 0
-0.0903007 1.02808 2.68923 255 0 0
-9.15713 1.07428 17.7076 255 0 0
0.136714 0.427384 1.76614 255 0 0
59.482 -35.1205 115.857 255 0 0
-170.422 25.0737 334.815 255 0 0
-18.1457 -21.3584 49.3819 255 0 0
21.6373 -19.3422 52.5013 255 0 0
4.19613 -7.91215 33.1077 255 0 0
10.4928 -25.312 77.341 255 0 0
10.5908 -4.94165 19.5828 255 0 0
-0.00302739 -0.320192 1.30868 255 0 0
0.135331 0.44323 2.03094 255 0 0
14.6339 -31.4276 133.391 255 0 0
-29.1303 -22.2965 54.7422 255 0 0
0.580744 -0.553516 2.16073 255 0 0
10.5013 -30.7266 116.233 255 0 0
-1.0673 1.69906 4.76514 255 0 0
-0.361693 2.13114 7.4848 255 0 0
-15.4907 -38.9724 209.008 255 0 0
27.2413 -10.3871 52.362 255 0 0
0.559103 0.40043 2.86296 255 0 0
14.6487 -11.3284 57.7477 255 0 0
-3.98379 -23.6018 61.5766 255 0 0
7.82764 -21.3941 52.7926 255 0 0
-5.81762 -26.8537 85.0965 255 0 0
15.1154 -21.0269 64.3414 255 0 0
213.55 14.5934 391.987 255 0 0
6.37039 -2.5454 12.6762 255 0 0
24.6298 -22.7876 53.2636 255 0 0
0.180758 0.105805 1.60689 255 0 0
-0.262862 0.510905 1.51401 255 0 0
-6.74464 -6.9581 39.8791 255 0 0
113.474 -6.23379 399.24 255 0 0
-93.1258 44.5678 208.319 255 0 0
-4.71148 -23.8755 62.9475 255 0 0
-69.083 -24.7173 141.925 255 0 0
-167.457 80.4141 375.674 255 0 0
12.9831 -8.87444 24.1558 255 0 0
60.2998 101.237 248.37 255 0 0
-0.720989 -0.528245 2.92724 255 0 0
-0.00375327 1.10255 4.11231 255 0 0
0.79102 -0.119774 3.06751 255 0 0
-2.59417 -58.9596 287.71 255 0 0
10.3583 -26.0839 86.4476 255 0 0
3.99859 -24.7525 92.1278 255 0 0
-14.9089 -37.0018 142.084 255 0 0
18.6793 -23.2636 68.2784 255 0 0
-21.3824 12.1021 43.7218 255 0 0
-214.883 32.1381 421.148 255 0 0
61.3713 -23.5011 141.945 255 0 0
-0.406508 -0.746273 1.84798 255 0 0
4.03461 66.5735 388.103 255 0 0
0.416393 -1.22366 3.04037 255 0 0
-0.42929 -0.760288 1.8919 255 0 0
-0.354023 0.684273 1.62353 255 0 0
34.1587 -18.5829 84.5545 255 0 0
2.61822 -1.83313 6.21259 255 0 0
-27.2815 -20.3368 51.7156 255 0 0
-0.0300846 1.11723 2.66437 255 0 0
-12.1906 -28.7928 149.953 255 0 0
-0.212293 1.03614 3.01436 255 0 0
0.955077 -27.0623 137.727 255 0 0
14.739 -25.4138 78.2257 255 0 0
29.4476 -25.9385 66.2618 255 0 0
26.5376 63.2545 166.157 255 0 0
-0.238042 -0.628702 1.87758 255 0 0
205.648 -48.0366 345.882 255 0 0
4.59552 8.21107 23.2315 255 0 0
-1.01935 -1.19082 2.9767 255 0 0
0.553792 -44.8583 230.189 255 0 0
-73.367 -34.0604 181.198 255 0 0
-4.74363 6.91266 21.8982 255 0 0
-67.4592 10.183 131.404 255 0 0
51.4499 -22.5282 111.79 255 0 0
-0.196609 -0.239781 1.37756 255 0 0
1.62505 -3.11936 7.66477 255 0 0
5.05364 -22.8156 56.3346 255 0 0
22.6045 34.188 87.0016 255 0 0
0.283269 0.330985 1.49057 255 0 0
-14.0223 -25.2449 69.8586 255 0 0
-0.15439 0.231395 1.61043 255 0 0
0.968824 -2.12681 5.31929 255 0 0
18.5245 -11.1278 35.2869 255 0 0
85.5601 -32.5475 162.044 255 0 0
-29.3916 -16.813 71.9653 255 0 0
-5.13116 -22.9352 61.4345 255 0 0
-2.51222 0.597192 10.1769 255 0 0
36.3585 -14.3112 89.1482 255 0 0
-7.85619 -27.3923 69.3789 255 0 0
33.1051 -19.6083 110.455 255 0 0
-30.0483 -25.9596 106.619 255 0 0
-159.127 23.412 312.545 255 0 0
-29.3139 -22.2005 117.909 255 0 0
-235.207 70.0949 481.836 255 0 0
-47.6967 -24.1501 132.368 255 0 0
3.03804 -15.1127 39.8958 255 0 0
-0.120213 -0.621397 2.60771 255 0 0
0.0401058 -0.162124 1.3665 255 0 0
3.51959 -25.4536 97.7002 255 0 0
0.261145 0.688377 1.55814 255 0 0
117.462 -39.3385 470.249 255 0 0
2.50879 -3.25187 8.22568 255 0 0
-0.297945 0.532861 1.77248 255 0 0
-129.236 -33.4907 256.142 255 0 0
114.888 -50.97 237.893 255 0 0
-188.997 110.245 400.234 255 0 0
-19.7136 -21.5342 57.2202 255 0 0
-16.3771 39.9924 167.884 255 0 0
10.6355 -4.93875 19.661 255 0 0
-25.5825 -19.4928 47.9349 255 0 0
-0.0342209 -0.287416 1.06579 255 0 0
204.755 -90.6363 423.008 255 0 0
-42.6005 -36.9264 152.064 255 0 0
0.110753 -0.246442 1.18935 255 0 0
-7.89736 -23.8513 102.661 255 0 0
-4.53098 -21.1462 53.2645 255 0 0
206.966 -48.3922 348.091 255 0 0
-43.2545 15.7698 157.943 255 0 0
-70.3217 6.16611 130.554 255 0 0
0.681775 -1.07135 3.75337 255 0 0
-95.139 -41.528 248.371 255 0 0
-17.1426 -27.2912 86.7137 255 0 0
-22.7747 -19.9622 45.7999 255 0 0
-87.3615 -57.3456 192.111 255 0 0
-0.0449754 0.356845 1.42554 255 0 0
216.531 158.463 475.809 255 0 0
-6.2674 -22.5856 60.4074 255 0 0
-1.89821 1.46608 5.32074 255 0 0
91.4515 -60.3059 337.78 255 0 0
-3.07513 0.917265 6.27727 255 0 0
0.901536 -1.04263 5.96296 255 0 0
107.202 -70.9057 395.578 255 0 0
17.1017 -23.2006 92.5617 255 0 0
-16.5602 -22.0114 54.7674 255 0 0
6.90407 -22.7236 57.8154 255 0 0
0.282835 0.617179 1.74288 255 0 0
12.3164 -7.85944 22.3916 255 0 0
26.6355 -23.4348 60.0604 255 0 0
-1.4535 -3.98921 10.3694 255 0 0
-18.5133 -24.2002 90.5356 255 0 0
137.121 -61.0104 283.689 255 0 0
121.981 -20.4995 202.345 255 0 0
-1.33992 -0.532098 3.75698 255 0 0
29.4721 -33.3639 79.1449 255 0 0
104.433 91.1717 234.377 255 0 0
229.214 -15.5188 391.053 255 0 0
-57.8283 -19.5613 105.936 255 0 0
-18.4766 -23.4105 128.619 255 0 0
-75.8858 10.5546 182.923 255 0 0
-27.3149 -24.4082 100.678 255 0 0
-0.364611 2.03654 7.39314 255 0 0
-26.1219 4.29941 47.5396 255 0 0
-176.861 136.24 490.471 255 0 0
-18.6268 3.18722 37.8065 255 0 0
1.25209 1.1862 20.3106 255 0 0
12.7143 -44.4494 253.55 255 0 0
214.94 8.31893 368.201 255 0 0
-0.501902 2.45338 8.82351 255 0 0
268.755 -121.301 471.346 255 0 0
-86.3716 -49.6997 214.388 255 0 0
-1.76052 -23.5458 72.8866 255 0 0
-178.14 13.9276 347.039 255 0 0
-16.5792 -24.5894 68.8585 255 0 0
-48.8017 -27.9781 122.953 255 0 0
46.7742 -28.2098 87.4109 255 0 0
-11.1118 -25.4037 83.3914 255 0 0
7.99209 -5.95894 16.277 255 0 0
-0.525984 2.18153 7.51367 255 0 0
1.10339 1.78195 7.84797 255 0 0
15.4417 -35.5825 151.947 255 0 0
37.4273 -44.3514 184.091 255 0 0
-20.6296 -23.249 58.7915 255 0 0
-69.3319 -38.3732 285.782 255 0 0
-44.8782 -2.85998 76.3431 255 0 0
-24.7605 -25.0493 74.7088 255 0 0
-27.7253 -33.4081 87.4844 255 0 0
-4.01575 1.17593 7.86042 255 0 0
-47.7751 -24.9134 131.714 255 0 0
0.210426 1.34884 3.28392 255 0 0
-3.99735 -5.05405 13.2899 255 0 0
-21.7538 -22.8714 55.2368 255 0 0
95.5603 -35.6025 180.852 255 0 0
6.69419 -23.1428 58.7475 255 0 0
-124.926 -46.9546 230.394 255 0 0
-131.918 31.25 250.374 255 0 0
16.1015 -25.537 66.4364 255 0 0
-222.39 122.82 452.293 255 0 0
0.0740247 0.529198 1.62091 255 0 0
-19.6706 -21.2903 57.0044 255 0 0
0.885419 1.16119 5.8224 255 0 0
-14.8625 33.6598 122.237 255 0 0
-21.8045 -23.1562 63.7865 255 0 0
37.2291 -23.4774 132.59 255 0 0
-29.4272 -11.9332 53.5567 255 0 0
0.645343 -0.658093 2.29306 255 0 0
-19.1002 -25.7731 67.4639 255 0 0
32.9598 -35.1968 118.071 255 0 0
1.01289 7.97494 16.9506 255 0 0
-0.359024 3.26521 7.92718 255 0 0
-0.787462 0.141664 2.98236 255 0 0
-0.853186 1.49695 5.24017 255 0 0
11.9853 -29.6304 124.137 255 0 0
28.3067 -23.2394 68.8659 255 0 0
-0.841426 1.46213 4.99678 255 0 0
22.3793 -22.1187 65.1193 255 0 0
-8.02132 -0.624733 14.5506 255 0 0
-0.605433 0.782976 2.64348 255 0 0
1.11799 -30.0074 161.054 255 0 0
12.2913 -23.0742 62.3377 255 0 0
-3.22892 -21.8932 56.25 255 0 0
67.2157 -24.6415 130.231 255 0 0
12.7165 -8.10765 23.0853 255 0 0
54.508 -34.6389 107.033 255 0 0
-37.0305 -32.3933 131.898 255 0 0
170.559 -64.2821 311.265 255 0 0
12.4759 -21.5769 50.2025 255 0 0
-17.0182 -40.0935 182.941 255 0 0
24.5254 -26.6457 84.7215 255 0 0
-9.30331 20.392 66.4789 255 0 0
-0.55377 -0.867351 5.73348 255 0 0
-12.1297 -21.718 55.9939 255 0 0
-0.886785 -0.578512 2.86413 255 0 0
-7.79064 0.816083 14.8413 255 0 0
-19.0153 15.3577 58.0436 255 0 0
29.527 -17.1383 55.9364 255 0 0
16.1531 -24.0728 55.5622 255 0 0
-0.0366084 -0.123757 1.07057 255 0 0
-5.00806 -2.88239 12.2483 255 0 0
0.288222 -0.0795045 1.62585 255 0 0
-111.922 33.1835 228.634 255 0 0
-32.414 -22.5871 94.2583 255 0 0
-2.80212 0.450114 8.5242 255 0 0
-2.32795 -2.90498 8.73323 255 0 0
16.5824 -12.6217 43.3524 255 0 0
24.1149 -26.5381 93.8143 255 0 0
116.454 193.659 469.908 255 0 0
0.167365 0.533961 1.35837 255 0 0
-24.6954 -22.9921 97.1954 255 0 0
0.184671 0.24711 1.77565 255 0 0
16.7372 -25.4068 59.6614 255 0 0
-18.582 -22.8383 71.9707 255 0 0
-0.16802 0.126445 1.37794 255 0 0
22.0726 -12.5179 36.7617 255 0 0
-0.734153 1.14249 2.86392 255 0 0
66.7973 119.99 281.53 255 0 0
-31.1058 -36.2909 178.175 255 0 0
-22.0174 -15.9705 45.9497 255 0 0
-76.8076 11.0347 134.52 255 0 0
9.9319 -23.9583 63.0061 255 0 0
-6.10058 -21.9756 60.788 255 0 0
26.9177 -43.6364 235.842 255 0 0
0.276583 0.150485 3.11781 255 0 0
0.282144 -6.54614 15.5443 255 0 0
5.13417 -41.8117 115.47 255 0 0
16.512 -25.8704 74.1505 255 0 0
-17.1892 -21.8951 114.766 255 0 0
-26.3517 23.8456 80.0705 255 0 0
-163.97 97.223 359.098 255 0 0
9.46447 -36.0109 205.251 255 0 0
-57.3804 19.6244 104.907 255 0 0
0.908784 1.17331 5.91399 255 0 0
-20.9954 -35.1039 90.6305 255 0 0
-0.202641 0.364511 1.39479 255 0 0
-2.83069 -18.3103 86.7693 255 0 0
-0.0150077 -0.314045 1.28242 255 0 0
-20.2719 -24.9373 78.5185 255 0 0
-17.9608 -20.0794 49.9418 255 0 0
1.68619 -1.36388 3.82571 255 0 0
-27.7802 -22.7783 72.5718 255 0 0
145.821 106.188 480.521 255 0 0
-246.881 31.7998 412.58 255 0 0
48.0112 -30.695 110.98 255 0 0
-107.597 -31.9924 239.661 255 0 0
-20.2766 -20.3396 47.4055 255 0 0
2.31051 -32.6158 150.23 255 0 0
-58.8661 20.4366 149.514 255 0 0
-57.3353 -25.8706 104.947 255 0 0
-24.3105 -21.242 51.3596 255 0 0
10.4489 -6.18869 20.2003 255 0 0
-128.861 43.6088 238.839 255 0 0
11.6895 -24.1765 58.7657 255 0 0
-53.5784 -43.2097 144.834 255 0 0
27.6014 -20.9837 57.7711 255 0 0
12.5012 -11.454 27.6585 255 0 0
-16.8513 -20.7987 65.0437 255 0 0
-34.3843 4.04591 68.6213 255 0 0
1.27873 1.97947 5.23481 255 0 0
2.79058 1.6775 6.13939 255 0 0
-28.5907 -25.6255 108.715 255 0 0
-47.2287 15.835 87.2955 255 0 0
0.101855 0.599168 1.3856 255 0 0
-0.323611 1.18383 4.21571 255 0 0
-149.214 74.048 300.499 255 0 0
9.08012 -21.9054 58.2903 255 0 0
96.6191 1.08903 203.11 255 0 0
-0.0660348 1.23443 3.28924 255 0 0
-0.516644 0.78905 2.10299 255 0 0
-5.86193 -39.372 156.165 255 0 0
-0.265414 0.394866 1.42759 255 0 0
-12.561 -29.8705 138.425 255 0 0
-4.13266 -4.06181 12.8037 255 0 0
-11.0324 6.89882 20.9892 255 0 0
-2.93607 0.772024 20.9284 255 0 0
5.07977 -26.2361 112.591 255 0 0
-2.31402 -2.77098 6.41425 255 0 0
0.668824 0.729328 4.05707 255 0 0
17.113 -27.6952 122.273 255 0 0
252.354 24.5203 474.239 255 0 0
-6.28075 -26.5287 98.2882 255 0 0
-2.54099 0.494591 5.55724 255 0 0
-61.5411 111.264 363.836 255 0 0
-6.51817 -24.2007 74.5924 255 0 0
-34.239 -18.8231 58.5226 255 0 0
-13.0817 10.7754 29.2693 255 0 0
-3.29493 3.41725 11.4842 255 0 0
-34.2818 -29.9918 104.618 255 0 0
-21.9935 -19.0572 46.3408 255 0 0
4.18539 -2.27972 8.17645 255 0 0
1.24408 -1.29023 10.6084 255 0 0
-0.0628145 0.337261 1.93681 255 0 0
-63.9542 -40.4735 169.425 255 0 0
24.5523 -15.9091 48.754 255 0 0
47.385 -27.7811 91.0274 255 0 0
-149.132 35.8135 283.195 255 0 0
0.345734 -1.37825 3.36849 255 0 0
112.347 -5.27602 194.458 255 0 0
-63.3993 21.3713 117.569 255 0 0
-179.356 33.6647 394.866 255 0 0
9.38457 -4.89005 19.7785 255 0 0
-38.3972 -33.8739 122.871 255 0 0
7.22994 -23.8395 63.0624 255 0 0
34.6282 -23.992 67.5177 255 0 0
-1.50911 1.34126 3.69013 255 0 0
23.2733 -27.7439 115.571 255 0 0
-14.4042 4.10357 53.085 255 0 0
-0.629356 0.542824 2.45478 255 0 0
147.977 16.2262 291.929 255 0 0
-56.846 -21.9292 117.162 255 0 0
-0.436578 0.856323 1.90485 255 0 0
-55.2121 -1.48006 93.4308 255 0 0
-33.745 4.96494 67.0476 255 0 0
0.578709 -0.0639954 3.39389 255 0 0
0.423779 -0.136492 3.71198 255 0 0
-70.7175 -23.9383 125.828 255 0 0
10.2225 -3.70174 20.3336 255 0 0
-0.130579 -0.194417 1.55685 255 0 0
-0.0445675 1.23403 3.17078 255 0 0
2.76224 -44.1262 237.395 255 0 0
-214.731 35.0417 398.863 255 0 0
-160.493 104.749 405.936 255 0 0
-37.657 -29.609 105.623 255 0 0
-0.709953 -0.70475 2.18974 255 0 0
-3.55838 -1.78012 7.39958 255 0 0
-26.0758 -23.0442 83.9316 255 0 0
-2.77628 1.20991 7.55121 255 0 0
-6.46322 -39.9971 186.564 255 0 0
1.094 1.18468 2.85371 255 0 0
-0.162698 0.272263 1.69693 255 0 0
-0.457024 1.3693 4.88112 255 0 0
-0.888484 0.740483 4.12062 255 0 0
66.303 176.055 470.939 255 0 0
13.5356 6.3255 23.4903 255 0 0
0.047793 0.0553609 1.35758 255 0 0
2.52529 -19.942 55.1608 255 0 0
-35.0364 -35.727 107.237 255 0 0
-0.021151 0.11292 1.30777 255 0 0
-32.4286 17.0249 71.4656 255 0 0
-16.4594 2.71774 31.5957 255 0 0
-3.59471 -23.7806 72.4546 255 0 0
-0.00237277 0.0636064 0.992956 255 0 0
-36.6563 -28.9664 102.771 255 0 0
-3.97884 -27.7423 131.43 255 0 0
-2.37012 -1.64075 4.93669 255 0 0
-6.17772 -24.279 66.2869 255 0 0
-0.570475 0.141628 4.30828 255 0 0
-3.33702 4.79695 12.3491 255 0 0
11.4 -64.291 290.201 255 0 0
-2.49012 0.813515 7.24963 255 0 0
2.90047 -2.39929 12.4679 255 0 0
-43.8591 -17.23 101.565 255 0 0
-6.34549 1.30747 12.4146 255 0 0
-10.9141 4.33008 22.8591 255 0 0
1.8619 -27.4458 127.074 255 0 0
-1.38968 -1.66333 5.36915 255 0 0
-31.1475 7.17855 79.7648 255 0 0
-0.0262544 -0.900239 3.50907 255 0 0
-0.398092 0.625155 2.43266 255 0 0
-2.336 -2.45717 6.69493 255 0 0
-22.1387 2.44086 44.4554 255 0 0
0.550807 -1.14974 2.72156 255 0 0
10.4684 -0.690283 19.3529 255 0 0
2.32512 -1.54633 5.58764 255 0 0
-0.188396 0.831399 2.92728 255 0 0
-28.3653 -24.7677 86.2411 255 0 0
-16.0246 30.5 116.952 255 0 0
35.5005 -25.4339 104.278 255 0 0
-65.866 38.8673 143.459 255 0 0
161.824 -62.4045 295.146 255 0 0
-159.393 54.363 293.384 255 0 0
-40.0107 4.70452 80.0494 255 0 0
0.00886159 0.352789 1.18019 255 0 0
-83.7788 50.6391 174.502 255 0 0
-25.9401 47.7129 183.01 255 0 0
185.944 -65.4325 350.483 255 0 0
22.7465 29.9337 172.864 255 0 0
-17.1368 -4.18163 80.9055 255 0 0
2.19456 -0.868777 7.4631 255 0 0
-4.66818 3.18041 9.96931 255 0 0
-33.3229 26.3246 66.6607 255 0 0
27.965 -13.8014 48.8069 255 0 0
-19.5279 -83.8379 323.864 255 0 0
-0.0175831 -0.448254 3.43079 255 0 0
-6.40257 -20.8814 50.7125 255 0 0
-38.4667 -20.2294 76.3566 255 0 0
-0.115254 -0.723048 2.22117 255 0 0
1.01143 -2.4823 6.37486 255 0 0
-8.94553 1.434 17.7298 255 0 0
3.74197 -2.29272 7.0952 255 0 0
-10.7826 -9.01332 22.3117 255 0 0
-228.504 184.233 492.859 255 0 0
-0.0769372 0.264433 1.15845 255 0 0
26.708 -24.5452 102.967 255 0 0
-1.16904 0.166458 3.19282 255 0 0
6.26532 -5.21585 20.0209 255 0 0
-39.169 13.1 72.2065 255 0 0
-69.7703 -32.5403 140.551 255 0 0
-58.2425 34.0134 111.232 255 0 0
41.4891 -32.1599 122.742 255 0 0
-18.485 -23.6157 58.6149 255 0 0
-38.6798 -24.9619 107.521 255 0 0
117.227 -80.5552 433.463 255 0 0
50.9233 -35.9563 184.555 255 0 0
-53.1652 -24.042 97.2333 255 0 0
-33.5562 -43.1559 237.115 255 0 0
-16.5955 -20.4183 86.5155 255 0 0
-0.629196 0.542387 2.44144 255 0 0
-245.011 82.7876 431.256 255 0 0
-16.8815 -55.3766 276.434 255 0 0
6.7806 -26.195 139.669 255 0 0
-16.9771 -23.8382 61.0552 255 0 0
8.86832 -6.38926 15.7129 255 0 0
0.172988 0.206585 1.59279 255 0 0
-0.128523 0.450967 1.8584 255 0 0
0.0927291 -0.520873 1.59582 255 0 0
22.6986 -26.5696 85.9451 255 0 0
7.47066 -42.4075 241.537 255 0 0
-15.0547 11.1923 29.7919 255 0 0
-4.06916 2.69538 7.78444 255 0 0
-0.0592106 -1.74213 7.48472 255 0 0
9.98674 -3.60529 21.0027 255 0 0
80.5593 -56.04 155.548 255 0 0
104.105 -62.9849 363.612 255 0 0
69.411 -50.4429 255.178 255 0 0
4.61304 -2.66264 9.37752 255 0 0
-5.65563 -7.65593 24.715 255 0 0
-4.63233 -0.433033 12.8471 255 0 0
-40.77 -20.8796 77.0665 255 0 0
-0.341667 -0.719869 1.95986 255 0 0
4.44965 -22.7146 55.3758 255 0 0
-148.144 71.9545 278.701 255 0 0
-35.1589 -29.2181 101.049 255 0 0
49.2095 -19.4071 91.7852 255 0 0
44.8486 -73.8085 307.847 255 0 0
-23.5516 -26.7621 95.4044 255 0 0
-3.07239 -2.44611 6.25507 255 0 0
6.03201 -7.94191 21.6094 255 0 0
-24.7555 -17.83 51.1907 255 0 0
-3.69237 -3.20881 7.3287 255 0 0
0.103093 0.081857 1.1791 255 0 0
6.56913 -38.8545 173.374 255 0 0
-0.313603 -0.867201 2.25528 255 0 0
155.051 58.2379 288.786 255 0 0
-0.507807 -0.648721 1.9927 255 0 0
-104.316 -43.2073 192.688 255 0 0
-108.452 100.754 231.555 255 0 0
52.5039 -27.417 95.5265 255 0 0
-5.2826 -33.0401 138.972 255 0 0
-192.318 26.1582 387.819 255 0 0
-14.136 1.67219 34.9719 255 0 0
29.3439 -22.8723 65.8739 255 0 0
-149.317 80.5934 276.799 255 0 0
72.9021 -23.9844 131.066 255 0 0
-101.055 -34.2781 180.269 255 0 0
1.52517 -25.3098 75.374 255 0 0
27.1541 -28.4365 127.692 255 0 0
-2.36969 -1.84911 6.73561 255 0 0
90.6674 15.5007 207.227 255 0 0
-41.0817 -24.6044 102.797 255 0 0
2.1478 -9.6422 54.2434 255 0 0
-10.1519 -29.3678 136.828 255 0 0
-217.91 32.9588 461.667 255 0 0
-5.22647 29.4815 185.718 255 0 0
-0.026729 0.426144 1.34144 255 0 0
-0.0262717 -0.577472 1.72994 255 0 0
0.047849 -1.25427 2.88835 255 0 0
-28.8643 -23.1537 68.5907 255 0 0
3.61559 -0.569554 9.71132 255 0 0
-0.499614 -0.546305 5.08088 255 0 0
-28.9532 -18.4294 67.2058 255 0 0
-0.111881 2.61248 8.54705 255 0 0
22.0153 -36.7624 153.185 255 0 0
-4.98799 1.0428 22.367 255 0 0
-21.4586 -19.5855 52.5593 255 0 0
-87.4727 -33.9987 180.958 255 0 0
-30.94 -40.4134 209.896 255 0 0
-3.65048 1.00725 11.8081 255 0 0
-30.9395 -14.377 59.0945 255 0 0
-32.3588 10.1906 73.0842 255 0 0
-20.9329 -23.991 74.3071 255 0 0
104.354 -24.7757 388.912 255 0 0
-0.822969 -0.2213 5.35119 255 0 0
-0.0217581 0.311681 2.38216 255 0 0
-17.4795 -21.8477 70.7783 255 0 0
-9.45777 -20.7176 59.6432 255 0 0
-38.1646 -36.5308 121.985 255 0 0
-10.3876 -15.4955 42.1776 255 0 0
0.765123 -0.436796 2.49038 255 0 0
-0.637309 0.0837058 2.06027 255 0 0
24.5166 -23.1641 61.888 255 0 0
0.189999 0.205957 1.68649 255 0 0
77.4438 -37.4149 156.025 255 0 0
-17.3805 -17.5084 45.6146 255 0 0
-54.2748 -23.2551 110.688 255 0 0
-39.9816 -23.0791 83.463 255 0 0
-29.3767 -32.8472 125.059 255 0 0
-0.791876 -1.01332 3.58571 255 0 0
-6.99356 -22.9106 56.3852 255 0 0
-47.0058 -21.4221 87.1812 255 0 0
0.357234 -1.07651 5.00534 255 0 0
-17.8863 -20.1773 47.6965 255 0 0
-3.10827 -2.4764 6.34583 255 0 0
5.65495 -3.29176 10.3803 255 0 0
68.6814 -59.2714 248.784 255 0 0
-15.6187 13.8427 37.3517 255 0 0
-53.8766 -23.0654 109.867 255 0 0
29.3146 -63.3466 305.277 255 0 0
-138.456 35.1828 307.953 255 0 0
9.94822 20.8368 53.5659 255 0 0
-52.9811 7.50641 146.818 255 0 0
-62.6233 -26.8838 114.316 255 0 0
-10.3964 -21.0561 50.1294 255 0 0
-70.3415 31.6974 120.351 255 0 0
-39.7096 -17.7381 89.5679 255 0 0
-31.2128 10.5319 56.9046 255 0 0
-57.2916 -24.2361 104.51 255 0 0
2.39368 4.67431 12.5051 255 0 0
-38.7119 -31.9349 214.914 255 0 0
0.105201 1.02516 2.57346 255 0 0
2.90401 2.30208 10.4187 255 0 0
-62.6176 45.1829 156.893 255 0 0
-3.61586 -23.5433 63.887 255 0 0
-1.85558 3.60514 9.37989 255 0 0
54.3703 -42.7167 189.202 255 0 0
-32.684 -19.1599 69.1145 255 0 0
10.3815 -4.75717 19.2166 255 0 0
-52.3111 -31.715 131.296 255 0 0
-38.4922 -22.6959 90.1137 255 0 0
-138.623 28.8445 307.679 255 0 0
16.1477 -11.9541 29.2122 255 0 0
39.4845 -35.4929 150.343 255 0 0
-1.99079 -21.0631 49.0449 255 0 0
-1.64955 1.06071 9.61278 255 0 0
-0.334973 -0.933316 2.40577 255 0 0
-0.504765 0.52939 2.64133 255 0 0
-34.7364 11.5596 62.8776 255 0 0
-165.138 22.4863 332.837 255 0 0
-0.629366 0.551959 2.45566 255 0 0
-3.87119 -23.2406 62.8955 255 0 0
3.68216 -2.73408 6.97791 255 0 0
-175.068 84.5871 329.56 255 0 0
-22.3593 -20.3979 46.7863 255 0 0
0.556701 -23.4647 74.3133 255 0 0
-54.2055 -23.0833 109.924 255 0 0
15.3801 -26.1198 111.426 255 0 0
64.0752 -55.3198 231.137 255 0 0
-87.3414 47.3199 161.447 255 0 0
-9.86188 6.69307 26.8439 255 0 0
-6.84429e-05 0.3518 2.50075 255 0 0
-6.28555 -17.4615 74.934 255 0 0
3.34471 0.0477306 6.42272 255 0 0
-3.40073 -1.90113 7.21697 255 0 0
-0.00759323 -0.298036 1.13235 255 0 0
-12.5562 2.02777 23.3736 255 0 0
-33.8847 -17.3022 63.8569 255 0 0
-8.14475 1.96985 15.5579 255 0 0
-22.5018 -21.7294 52.8179 255 0 0
-0.264573 0.911464 2.33701 255 0 0
-37.4092 -26.8082 65.3756 255 0 0
-3.06331 -3.63009 9.9987 255 0 0
2.29175 -21.936 54.8634 255 0 0
-74.064 23.4834 189.882 255 0 0
50.9366 -26.5069 90.6795 255 0 0
-0.449828 0.3617 1.8323 255 0 0
-6.11395 -4.91165 17.3972 255 0 0
7.26845 -3.5165 14.1016 255 0 0
-221.677 45.5925 491.032 255 0 0
-27.7261 17.8422 51.5437 255 0 0
-3.36176 1.74568 7.31479 255 0 0
-17.0329 -8.67893 33.0322 255 0 0
-45.0525 -29.8062 121.777 255 0 0
-141.624 106.268 279.734 255 0 0
-36.1379 -25.4807 75.3125 255 0 0
62.9326 -43.5894 209.108 255 0 0
-0.0827033 -0.308097 1.2602 255 0 0
0.933311 1.5351 3.45569 255 0 0
-28.9125 -28.0461 83.4087 255 0 0
-0.595264 -0.428983 2.15697 255 0 0
-6.97024 -4.61656 16.9808 255 0 0
-17.4921 -22.606 65.1505 255 0 0
42.5174 -28.0763 143.869 255 0 0
-0.520997 0.54301 2.69713 255 0 0
-0.446508 -0.754509 1.85075 255 0 0
-38.9331 -30.0617 75.8839 255 0 0
-5.1844 -2.85447 10.8034 255 0 0
3.57899 -22.4523 55.4276 255 0 0
-24.7627 -18.6257 127.43 255 0 0
33.7167 -16.6896 86.5833 255 0 0
5.19671 -26.3414 111.966 255 0 0
0.00221184 -0.863227 2.2915 255 0 0
-44.3617 -20.6028 77.1988 255 0 0
12.6613 -20.7095 78.2523 255 0 0
-59.0267 -32.443 221.355 255 0 0
-72.819 -34.286 172.016 255 0 0
19.9795 -20.5659 51.3899 255 0 0
-85.2776 28.7171 149.411 255 0 0
7.8633 -24.7927 67.5573 255 0 0
-0.713016 1.59419 3.58217 255 0 0
-0.0144012 -0.31993 1.28375 255 0 0
-20.236 -15.1295 103.557 255 0 0
65.9415 -22.3097 114.917 255 0 0
-113.641 81.9349 285.972 255 0 0
-66.6822 -28.9317 136.275 255 0 0
21.4959 -26.6588 102.55 255 0 0
-0.848987 0.668663 3.48996 255 0 0
-13.4076 -15.8534 50.4458 255 0 0
-56.8488 22.009 97.3809 255 0 0
-0.206678 -0.890303 2.42146 255 0 0
88.8898 -45.0955 183.159 255 0 0
4.83993 -29.5731 148.703 255 0 0
-1.98845 -1.84486 5.66679 255 0 0
-45.3318 12.6261 107.031 255 0 0
0.789638 -22.5661 59.4312 255 0 0
-23.1683 -16.8642 51.7636 255 0 0
-30.35 24.068 90.6391 255 0 0
-47.0038 -29.7697 80.069 255 0 0
-93.9581 82.2306 358.086 255 0 0
10.1743 -4.59091 19.4192 255 0 0
-47.7601 -24.0366 91.3962 255 0 0
-32.938 -22.9123 61.5508 255 0 0
-15.4069 2.45222 37.9571 255 0 0
-5.37996 2.08892 10.6778 255 0 0
-0.181799 0.604231 1.30633 255 0 0
-37.0703 -31.9298 219.354 255 0 0
0.287855 1.9556 4.20206 255 0 0
-1.21157 -2.19943 5.46082 255 0 0
-1.54641 -1.11755 3.69821 255 0 0
-0.0145803 -0.159369 1.18891 255 0 0
-66.3494 53.3998 198.2 255 0 0
-2.21674 0.296243 6.96695 255 0 0
-0.0278559 1.17717 2.67479 255 0 0
-0.806272 0.216472 4.26919 255 0 0
22.835 4.04646 46.7382 255 0 0
-2.29786 -1.86534 5.2737 255 0 0
41.0745 -68.5514 421.54 255 0 0
-54.9244 39.0326 112.217 255 0 0
-70.146 39.7403 129.442 255 0 0
-0.90217 -1.70441 5.63528 255 0 0
-26.71 -18.3726 57.6526 255 0 0
-3.75281 0.989657 12.2043 255 0 0
33.3356 -23.9364 74.3175 255 0 0
-45.3994 -39.2959 112.663 255 0 0
-14.9629 11.7022 29.2591 255 0 0
32.044 -21.7532 58.3486 255 0 0
-0.446772 0.700516 1.96889 255 0 0
-51.9077 -34.486 140.557 255 0 0
-0.219864 0.285187 1.56353 255 0 0
9.88385 -4.59152 18.8956 255 0 0
1.33407 -0.803675 3.32985 255 0 0
-49.8777 15.075 85.2404 255 0 0
47.3589 -29.6693 156.232 255 0 0
44.6302 -30.9234 150.865 255 0 0
-0.135896 0.477317 1.48397 255 0 0
-14.9319 2.34316 27.8527 255 0 0
-46.3588 -39.7696 113.114 255 0 0
-2.06871 1.05991 4.56671 255 0 0
-0.081971 -0.281942 1.48334 255 0 0
-0.542737 -0.676369 2.65213 255 0 0
-231.234 34.1038 427.995 255 0 0
-46.6924 -28.6952 117.03 255 0 0
-17.4229 -22.3971 53.6171 255 0 0
4.73178 -24.2273 93.618 255 0 0
-15.8737 -15.4126 37.3187 255 0 0
32.313 -22.3808 107.239 255 0 0
-0.183092 0.601891 1.3023 255 0 0
-7.13621 -5.00802 17.4532 255 0 0
62.1158 -29.0531 105.12 255 0 0
30.0307 -21.7207 55.5684 255 0 0
13.9809 -23.024 91.7399 255 0 0
0.807235 -0.534509 2.51792 255 0 0
-19.8856 -19.1342 46.5087 255 0 0
-19.0897 16.2795 43.3014 255 0 0
-0.526365 -0.920285 6.06411 255 0 0
-0.124488 -0.564014 1.28125 255 0 0
-3.31902 2.06528 6.76371 255 0 0
-34.1309 30.4047 72.4869 255 0 0
-0.28672 -2.33091 6.17287 255 0 0
-0.970306 -1.11659 3.50126 255 0 0
-189.756 30.4839 357.644 255 0 0
31.6132 -24.6987 64.6946 255 0 0
33.9427 -26.3442 68.9651 255 0 0
0.0132224 -0.525165 1.26104 255 0 0
25.42 -20.8643 61.9886 255 0 0
-49.9992 -25.6499 94.7727 255 0 0
0.37136 0.36316 2.47134 255 0 0
-19.8714 11.0199 88.8908 255 0 0
-15.3241 -21.1129 52.1717 255 0 0
-105.34 103.865 480.46 255 0 0
-11.2154 -34.532 129.166 255 0 0
-44.9301 -38.6123 109.637 255 0 0
-133.132 -45.958 285.219 255 0 0
-0.108325 -0.322776 1.33867 255 0 0
-2.72754 1.34437 5.90607 255 0 0
-6.58399 -24.4114 82.4647 255 0 0
-25.0554 -20.0754 59.3474 255 0 0
60.452 -31.4291 99.3195 255 0 0
1.75233 -24.9688 74.7938 255 0 0
-13.898 4.62826 51.0051 255 0 0
-8.84211 0.854908 15.9047 255 0 0
-21.0174 -16.9397 115.134 255 0 0
25.2856 56.7323 145.571 255 0 0
55.8285 51.8852 228.575 255 0 0
-78.5634 12.3303 218.259 255 0 0
77.9086 -51.5856 129.737 255 0 0
-5.95302 -4.70334 12.387 255 0 0
-2.77528 1.55954 6.1238 255 0 0
1.47741 1.75414 4.50606 255 0 0
-29.6804 -15.1164 55.7909 255 0 0
-37.8025 5.74147 89.5898 255 0 0
-35.9421 -23.4915 99.7907 255 0 0
2.87686 -2.65044 7.85635 255 0 0
13.7991 -28.775 96.7434 255 0 0
-21.5881 4.39492 46.6164 255 0 0
0.0373137 -0.132066 1.04143 255 0 0
-0.683052 0.38993 2.2757 255 0 0
3.86369 3.77231 11.7845 255 0 0
-8.74989 -21.1746 50.8579 255 0 0
0.438738 -1.3492 4.25277 255 0 0
9.13205 6.72618 31.5006 255 0 0
-58.1233 41.2291 222.657 255 0 0
-5.28445 -1.92189 10.1513 255 0 0
-38.1632 -18.5949 78.2461 255 0 0
-8.02857 7.86151 16.9288 255 0 0
-140.988 70.9971 254.161 255 0 0
-0.0731969 0.0753485 1.14005 255 0 0
-61.1372 -32.2843 122.071 255 0 0
1.51535 -6.64855 15.1499 255 0 0
-36.0351 -19.9355 61.9926 255 0 0
-22.5332 -26.7185 87.8665 255 0 0
-54.6802 -28.3501 198.421 255 0 0
33.2917 -16.2711 85.5108 255 0 0
-14.185 2.23005 34.8248 255 0 0
-6.67936 0.693488 12.4975 255 0 0
-29.9698 -20.3124 82.5456 255 0 0
184.119 -0.0282186 324.811 255 0 0
-3.55802 -3.86349 9.36936 255 0 0
198.475 138.82 419.962 255 0 0
-2.92248 -7.7984 18.0293 255 0 0
-0.835246 1.11915 2.74683 255 0 0
-54.1725 -24.822 178.971 255 0 0
183.7 1.40419 320.005 255 0 0
-18.9197 -23.4478 75.1606 255 0 0
15.2802 -5.46961 29.8361 255 0 0
-0.420102 -0.439666 2.07447 255 0 0
78.8197 -41.0112 129.2 255 0 0
-2.92276 1.56457 6.53898 255 0 0
18.0154 -12.969 61.2699 255 0 0
-41.4138 -26.8749 111.809 255 0 0
-0.0221198 0.453857 1.28839 255 0 0
-0.489438 -1.02697 3.51538 255 0 0
4.1343 2.54247 11.9046 255 0 0
-0.574717 -0.0295639 3.13562 255 0 0
-11.1945 5.77777 23.5262 255 0 0
44.2711 -26.6936 74.4647 255 0 0
-0.183409 0.284553 1.58526 255 0 0
-37.1564 -31.6044 91.9333 255 0 0
-23.4089 -20.4721 78.9136 255 0 0
-22.1586 12.5442 93.5642 255 0 0
-1.44112 -1.52975 6.04646 255 0 0
0.00639596 0.0524045 0.978324 255 0 0
3.48272 -23.1299 60.6941 255 0 0
237.87 -29.7877 454.628 255 0 0
-0.728586 -0.74909 2.71562 255 0 0
20.2768 -9.05876 38.0845 255 0 0
-19.6771 -22.7099 76.4246 255 0 0
-38.8794 -27.1029 105.031 255 0 0
38.1765 -24.9111 81.264 255 0 0
177.611 0.745676 309.433 255 0 0
1.6497 -1.71472 7.86338 255 0 0
-20.999 -16.5474 40.4813 255 0 0
-2.83359 1.52805 6.75609 255 0 0
21.902 -49.9251 195.473 255 0 0
6.60491 -17.312 55.0554 255 0 0
17.1861 -16.1056 43.1954 255 0 0
0.116939 -1.4891 5.54342 255 0 0
30.3318 -14.1429 77.5326 255 0 0
-2.78587 2.0758 8.8707 255 0 0
-1.35696 3.23354 7.83414 255 0 0
-4.14564 1.6435 8.32059 255 0 0
-31.4584 -20.4338 53.7108 255 0 0
-7.65681 -5.35002 15.1107 255 0 0
-1.2236 1.25568 3.07237 255 0 0
33.5451 -29.2884 140.667 255 0 0
-3.49398 -2.75594 7.06776 255 0 0
116.011 -52.8109 208.988 255 0 0
-50.628 -24.2278 97.4433 255 0 0
102.056 -48.4197 209.107 255 0 0
-3.26335 0.980844 10.7359 255 0 0
0.0251605 0.260865 2.03653 255 0 0
-0.940655 1.79966 3.90509 255 0 0
-13.0627 -27.5589 77.8153 255 0 0
-7.48723 2.11767 14.145 255 0 0
-0.603251 -0.809178 2.07775 255 0 0
14.5407 -10.324 55.9383 255 0 0
-1.98867 -5.55314 30.3129 255 0 0
-0.632156 -0.75753 2.72937 255 0 0
-72.0411 51.1412 180.68 255 0 0
-11.052 8.82046 25.9683 255 0 0
-0.0677052 0.193109 2.66132 255 0 0
39.1873 -26.8912 74.7535 255 0 0
-0.266451 0.206049 3.01659 255 0 0
-33.2251 9.15235 57.2655 255 0 0
1.90268 -22.6059 61.6742 255 0 0
-0.409632 -0.730537 1.91943 255 0 0
21.2004 -24.9939 113.961 255 0 0
-2.2367 0.631252 6.29406 255 0 0
-15.8831 -21.8758 54.1522 255 0 0
-14.8214 7.96487 26.4177 255 0 0
0.633751 0.854567 2.18196 255 0 0
-37.5529 -43.106 145.637 255 0 0
-27.0293 -36.4941 187.833 255 0 0
-2.02068 -2.42742 5.87608 255 0 0
-0.0228305 0.627328 1.63087 255 0 0
13.6436 -15.9255 72.9613 255 0 0
-54.338 -35.1281 151.733 255 0 0
4.95855 -2.04407 9.25161 255 0 0
-0.180562 0.606479 1.3102 255 0 0
-1.99793 -12.44 74.7007 255 0 0
-64.9356 -46.6737 129.009 255 0 0
-4.70229 -23.7067 119.693 255 0 0
31.4369 5.66442 55.8067 255 0 0
32.8486 -22.4519 61.1681 255 0 0
92.3504 -4.41694 161.254 255 0 0
0.654068 -0.979956 2.46063 255 0 0
-197.08 33.5235 339.433 255 0 0
-0.721377 -0.70167 2.26824 255 0 0
-0.339911 0.466991 1.60108 255 0 0
0.926865 -22.5394 58.2588 255 0 0
0.739768 -1.47953 3.67328 255 0 0
-5.14665 1.69486 9.92627 255 0 0
-21.4002 -17.9757 46.5661 255 0 0
-39.3733 -35.3794 236.626 255 0 0
-51.3465 -36.264 144.357 255 0 0
-79.2193 10.079 138.683 255 0 0
-26.9059 14.6666 103.638 255 0 0
-66.3043 8.49846 115.901 255 0 0
-35.7416 -24.8496 96.4217 255 0 0
0.35908 -1.21216 4.74593 255 0 0
12.619 -3.00517 26.0969 255 0 0
29.1483 -49.6748 247.465 255 0 0
-20.3288 -19.5252 50.8373 255 0 0
-45.4952 -39.6081 153.298 255 0 0
-48.8088 53.3878 181.92 255 0 0
-6.67993 -22.4885 58.1323 255 0 0
-62.6617 16.4276 127.976 255 0 0
-0.72633 1.07478 2.28887 255 0 0
7.52504 -5.04303 15.2656 255 0 0
-1.06287 0.655124 2.94041 255 0 0
-17.1326 15.2348 66.9647 255 0 0
-61.5938 -22.3758 110.994 255 0 0
-2.11235 -1.91115 6.01029 255 0 0
-44.513 -40.2971 157.081 255 0 0
-19.3669 17.287 76.0145 255 0 0
-1.98335 -2.04008 5.61508 255 0 0
-30.5862 -17.684 52.4612 255 0 0
-0.00686033 -0.338206 2.1914 255 0 0
-73.3165 59.8645 140.01 255 0 0
57.6244 -26.7468 109.267 255 0 0
-1.26451 0.994561 3.14916 255 0 0
-0.729356 0.502582 2.73373 255 0 0
-1.11779 1.52459 3.24691 255 0 0
76.0333 -30.4515 131.879 255 0 0
-109.722 10.7144 212.616 255 0 0
-75.2238 51.6513 127.071 255 0 0
-0.476266 -0.323149 1.88373 255 0 0
-30.346 -12.6958 55.2638 255 0 0
-4.97143 -1.69231 9.99141 255 0 0
-0.850476 0.913899 2.87133 255 0 0
-2.20107 1.54969 5.24722 255 0 0
-20.1518 -15.4355 38.9069 255 0 0
-56.7835 11.1882 140.261 255 0 0
0.00916602 -0.205954 1.39023 255 0 0
20.2563 -46.9719 245.552 255 0 0
-4.01345 1.7483 8.49114 255 0 0
-33.8322 9.44289 58.331 255 0 0
19.1814 -25.0013 68.7807 255 0 0
45.1416 -33.2508 180.192 255 0 0
1.86717 -1.13308 4.81099 255 0 0
32.5055 -15.5949 83.5273 255 0 0
-0.188052 -0.596706 1.53825 255 0 0
0.0457937 -0.192099 1.29697 255 0 0
-0.692353 0.856652 2.92724 255 0 0
59.7999 -26.5116 105.694 255 0 0
0.476237 0.562618 3.53197 255 0 0
0.143135 -0.298977 1.25648 255 0 0
-2.32662 -2.6775 8.50994 255 0 0
-0.816096 0.991833 3.16212 255 0 0
-0.554984 -0.527742 2.67359 255 0 0
2.10129 -22.6101 58.5203 255 0 0
-45.5393 -23.735 76.6924 255 0 0
-4.39361 2.18202 9.17457 255 0 0
-52.0795 11.2318 92.7053 255 0 0
27.6188 -32.0423 145.116 255 0 0
-44.9536 -24.3538 93.927 255 0 0
7.219 -3.43562 14.013 255 0 0
0.138119 -1.36923 3.29081 255 0 0
-0.712299 0.165282 2.34126 255 0 0
-11.4516 6.40165 20.894 255 0 0
-3.73689 3.21475 7.80317 255 0 0
0.0135625 -0.264211 1.08948 255 0 0
-112.458 46.1365 202.332 255 0 0
-20.7112 -15.6352 38.5882 255 0 0
-0.160123 0.139305 1.26018 255 0 0
-66.9916 -32.1606 129.316 255 0 0
44.9409 42.4942 146.292 255 0 0
-0.696912 -0.926945 2.43914 255 0 0
-1.81525 1.94355 4.53056 255 0 0
-20.4359 -23.2254 78.1244 255 0 0
-9.60739 4.40847 21.8532 255 0 0
-3.90484 0.699117 8.27107 255 0 0
32.0972 -23.9005 117.12 255 0 0
-19.5927 9.95663 34.6557 255 0 0
-0.0130452 0.065989 1.03802 255 0 0
31.6167 46.5644 117.377 255 0 0
-1.58214 -1.77688 6.78133 255 0 0
0.257882 -1.88589 6.76767 255 0 0
98.1822 5.87294 198.379 255 0 0
-28.5999 -28.282 102.398 255 0 0
0.568838 -0.361044 4.63324 255 0 0
-0.477117 -0.728761 2.0003 255 0 0
0.239898 0.118755 1.38795 255 0 0
-4.93294 0.98149 9.36691 255 0 0
-47.036 23.326 81.9351 255 0 0
-0.259219 -0.630991 2.06047 255 0 0
-6.79402 4.55078 13.8994 255 0 0
-13.8709 5.69936 25.3821 255 0 0
-0.697665 0.65488 2.36905 255 0 0
46.9126 -32.5596 143.913 255 0 0
-0.238278 0.629037 1.46523 255 0 0
-0.134974 -0.511107 1.51384 255 0 0
-2.1863 1.47578 4.6825 255 0 0
-1.17842 0.232823 3.05345 255 0 0
-9.94724 1.95868 21.0083 255 0 0
-0.867167 -0.606508 2.48102 255 0 0
-56.5375 -35.7065 109.667 255 0 0
3.92627 -3.29074 8.90293 255 0 0
0.0505533 0.4993 1.35422 255 0 0
0.02375 0.26452 1.11937 255 0 0
-74.8454 -24.5491 129.561 255 0 0
-10.0115 -9.77414 28.1753 255 0 0
-80.9901 -31.0035 139.522 255 0 0
-0.973032 -0.907524 2.84395 255 0 0
-39.2935 93.8125 354.392 255 0 0
-15.5738 16.976 58.1963 255 0 0
0.779364 -0.447813 2.51636 255 0 0
0.369334 -0.640924 1.57169 255 0 0
-19.8002 -18.0435 51.4875 255 0 0
-35.1447 -23.6162 68.5843 255 0 0
-20.4517 -21.0704 53.6987 255 0 0
-10.5031 3.26337 19.5358 255 0 0
-29.9863 -23.1099 59.6413 255 0 0
-7.42858 -19.8133 47.5254 255 0 0
27.6675 -21.7088 57.4224 255 0 0
-32.0958 10.9403 79.8774 255 0 0
-0.0570873 0.369173 1.2704 255 0 0
-111.012 90.5743 230.962 255 0 0
-7.42739 -6.42211 17.5887 255 0 0
1.15972 -1.16699 2.85323 255 0 0
1.90744 1.45421 11.4348 255 0 0
39.8485 -36.382 162.587 255 0 0
-33.1284 -25.5321 66.0182 255 0 0
-3.19075 1.73174 10.137 255 0 0
-5.77081 -5.38204 20.5496 255 0 0
-0.26028 -1.28392 4.04713 255 0 0
-0.339109 0.469339 1.60602 255 0 0
1.7558 -1.52623 8.43841 255 0 0
-24.5763 -19.3402 49.8177 255 0 0
97.5689 9.08827 186.787 255 0 0
-0.79744 -1.16407 3.51168 255 0 0
94.222 -64.3613 169.487 255 0 0
-34.4413 -18.8837 61.9812 255 0 0
-10.2312 5.81034 18.386 255 0 0
4.10399 3.44433 11.7978 255 0 0
-0.201673 0.510489 1.56132 255 0 0
48.8487 -55.568 263.269 255 0 0
-0.439375 -0.946385 2.41925 255 0 0
0.596959 -2.05824 8.74872 255 0 0
0.0584481 -0.443048 1.50069 255 0 0
-115.241 27.026 256.095 255 0 0
-13.9134 -5.87506 25.4697 255 0 0
5.14279 -2.60611 9.62568 255 0 0
-150.028 -59.2525 350.832 255 0 0
1.18762 2.28449 5.05117 255 0 0
-19.6446 14.1724 42.7613 255 0 0
-0.835403 -1.20042 3.47624 255 0 0
0.502469 -0.452233 1.97847 255 0 0
-8.36311 -60.2309 257.775 255 0 0
-3.91232 -5.26563 15.5113 255 0 0
0.152404 -27.308 115.97 255 0 0
-4.77994 -3.15712 8.96758 255 0 0
-21.3583 -17.9911 46.5709 255 0 0
-24.8453 -18.2975 50.8149 255 0 0
-7.39301 -5.2734 16.7627 255 0 0
32.7545 -26.3662 72.9366 255 0 0
9.47893 -2.40666 35.4346 255 0 0
-3.98594 -10.9927 27.7147 255 0 0
-3.1295 -2.73347 7.41337 255 0 0
-11.9096 6.74521 21.5901 255 0 0
-81.705 22.0893 172.276 255 0 0
0.776797 -0.473045 2.61623 255 0 0
-3.50616 -1.95009 7.37815 255 0 0
-22.7735 -25.5163 82.5724 255 0 0
1.06443 -1.43347 3.71087 255 0 0
-0.168504 -0.493216 1.39168 255 0 0
18.5585 -13.9918 34.9359 255 0 0
16.613 -23.1059 87.1516 255 0 0
0.937673 -2.75265 6.95975 255 0 0
-4.35245 1.80371 9.96 255 0 0
-0.240003 -2.01331 6.12336 255 0 0
-0.441905 0.848071 2.1989 255 0 0
3.08375 -2.93782 7.35465 255 0 0
-38.2552 -20.8014 79.7419 255 0 0
0.60489 -0.870074 2.32813 255 0 0
0.990021 -0.70335 3.27453 255 0 0
-7.51228 -20.1801 48.4184 255 0 0
0.107718 -0.491595 1.22883 255 0 0
-2.63174 -3.5082 11.3337 255 0 0
-34.4227 12.6826 61.9411 255 0 0
-0.718548 0.493045 2.47156 255 0 0
-18.7331 -19.2674 50.5716 255 0 0
46.3601 -26.534 76.4597 255 0 0
20.6824 38.628 89.71 255 0 0
-5.40788 5.23142 11.7548 255 0 0
-4.70661 -2.97473 11.4195 255 0 0
-134.933 17.0125 236.961 255 0 0
-0.784961 -0.687829 2.29769 255 0 0
-0.292542 -0.348636 1.47307 255 0 0
-23.4131 20.0368 53.3829 255 0 0
-48.7698 24.2261 84.9943 255 0 0
0.961233 -0.635789 3.26172 255 0 0
-0.781419 -0.801426 2.7546 255 0 0
13.864 -16.9938 96.324 255 0 0
14.0485 -9.16291 24.3542 255 0 0
60.778 -16.1853 199.809 255 0 0
-0.697695 0.653427 2.3698 255 0 0
-2.68826 -1.36547 5.99401 255 0 0
-74.0867 30.7481 151.966 255 0 0
-3.72956 -3.8512 10.9955 255 0 0
-27.0208 -23.9777 93.0274 255 0 0
0.878956 -20.0109 46.9805 255 0 0
21.4393 -24.3819 119.787 255 0 0
-3.87066 0.411943 7.57215 255 0 0
-3.31069 -2.95036 7.94438 255 0 0
-30.6028 -19.5708 83.3663 255 0 0
-6.502 -3.97334 14.4205 255 0 0
-8.10561 -22.2953 59.41 255 0 0
31.5023 -3.33088 90.6683 255 0 0
-25.3447 -20.6111 70.2976 255 0 0
-9.73773 5.76956 19.8401 255 0 0
0.0514983 0.258671 1.88767 255 0 0
-96.7346 78.0529 168.269 255 0 0
0.415194 -0.997055 2.55834 255 0 0
-1.06706 -1.28881 3.31959 255 0 0
13.1792 -15.1876 56.7401 255 0 0
97.0212 -19.3396 361.688 255 0 0
2.3789 -1.36185 6.57949 255 0 0
27.5261 -24.4719 65.0879 255 0 0
-79.0316 23.5215 143.167 255 0 0
-1.68281 -1.43319 4.40713 255 0 0
35.1207 -38.3079 97.9365 255 0 0
-33.3428 30.0005 125.663 255 0 0
15.3022 -27.6643 70.0157 255 0 0
94.2536 -42.5779 167.293 255 0 0
-63.3909 19.773 170.902 255 0 0
-0.422038 0.116038 1.73957 255 0 0
100.202 -45.1379 194.734 255 0 0
-4.2754 -3.05537 8.55308 255 0 0
-9.22567 9.39593 25.2692 255 0 0
-6.13824 -5.25625 13.4365 255 0 0
-11.3198 11.0375 27.8479 255 0 0
-140.612 74.0377 242.145 255 0 0
-7.80029 -4.83048 16.7846 255 0 0
-0.455481 -0.986605 2.35249 255 0 0
8.03655 -25.7269 68.9402 255 0 0
-38.5202 -30.6984 78.318 255 0 0
-5.15028 -3.96343 10.521 255 0 0
7.26053 -24.5609 105.873 255 0 0
-20.6567 -21.9344 79.0403 255 0 0
-13.1958 5.72881 28.2637 255 0 0
-0.122122 1.11085 2.82178 255 0 0
-13.1608 3.50516 26.2588 255 0 0
-1.36356 -0.491466 3.29039 255 0 0
-0.331794 -0.638825 1.63064 255 0 0
-9.00983 -24.3998 58.0669 255 0 0
-0.188085 -0.601538 1.53669 255 0 0
-0.534342 0.711404 1.95976 255 0 0
-24.233 -20.7126 58.4199 255 0 0
-0.191367 0.683513 1.46998 255 0 0
-5.955 -5.685 14.26 255 0 0
-24.92 -20.9353 59.2023 255 0 0
43.3023 81.8834 211.601 255 0 0
-132.028 58.5076 281.041 255 0 0
-8.70278 -23.0469 66.3231 255 0 0
-0.480686 -0.874295 2.30306 255 0 0
-0.319809 0.775802 1.99484 255 0 0
-6.12588 1.42195 11.3892 255 0 0
16.4975 -80.7011 313.04 255 0 0
-40.3099 -36.0691 139.818 255 0 0
-2.73639 -1.71512 5.50493 255 0 0
-1.33079 0.888168 4.10028 255 0 0
0.571075 -0.449029 2.64617 255 0 0
2.54189 -21.3351 55.3633 255 0 0
-22.4817 9.45469 40.1459 255 0 0
-11.4288 -76.7009 321.382 255 0 0
-21.162 -22.8852 75.3421 255 0 0
-4.73588 -3.34042 9.62457 255 0 0
-210.059 92.0125 447.901 255 0 0
-0.896687 1.47141 3.14216 255 0 0
-16.4583 -18.0136 59.7426 255 0 0
-9.43837 -7.45641 36.3366 255 0 0
7.26647 -3.01086 13.6238 255 0 0
184.535 -59.6016 330.127 255 0 0
-98.4153 52.0465 169.168 255 0 0
-0.147851 -0.75765 1.77315 255 0 0
-0.353269 -2.29992 5.33294 255 0 0
-45.1224 -18.802 82.7161 255 0 0
54.8654 -23.5194 100.139 255 0 0
-34.6126 -24.6202 65.0848 255 0 0
-1.01295 -1.68756 5.64683 255 0 0
8.2415 -3.96162 14.3833 255 0 0
-3.04515 4.11567 15.9612 255 0 0
-13.7893 9.52306 25.0772 255 0 0
23.3786 -22.0011 57.6972 255 0 0
-34.6161 22.3091 63.1179 255 0 0
0.446612 -0.582924 1.7514 255 0 0
-32.5225 11.1207 80.9597 255 0 0
0.166292 -0.177576 1.84183 255 0 0
-39.1848 -28.4384 112.401 255 0 0
-0.00897475 -0.39511 1.3177 255 0 0
-45.571 -43.617 153.798 255 0 0
0.0791735 -0.467973 1.12864 255 0 0
-0.339556 0.756032 1.85425 255 0 0
-0.698091 0.658093 2.3794 255 0 0
-9.83151 1.58578 19.0434 255 0 0
5.60432 -0.491656 18.6454 255 0 0
1.90167 -0.835385 9.72536 255 0 0
11.6179 11.3032 36.4764 255 0 0
116.42 4.69293 209.381 255 0 0
7.29465 -6.69615 19.173 255 0 0
-38.3309 -27.2687 72.1998 255 0 0
-0.742488 -1.09082 2.78124 255 0 0
-29.4582 -20.9405 55.2216 255 0 0
-0.114971 0.266943 1.94713 255 0 0
72.2027 -32.2529 140.233 255 0 0
11.5787 11.2834 36.3592 255 0 0
-3.76819 3.36942 10.0365 255 0 0
46.7213 -30.5174 99.1712 255 0 0
-1.77736 -1.22391 3.9944 255 0 0
-0.507873 0.201589 2.96047 255 0 0
-11.4854 6.37393 21.6037 255 0 0
-63.139 -27.1873 106.827 255 0 0
-35.5584 -36.5869 138.723 255 0 0
-3.70428 -12.6002 29.6811 255 0 0
-24.6783 5.92235 47.7868 255 0 0
-9.00879 -7.74801 21.1884 255 0 0
-22.9241 -15.201 60.1144 255 0 0
112.364 -20.3999 397.148 255 0 0
-1.42288 -1.83194 5.68667 255 0 0
-2.8133 -2.68916 6.92578 255 0 0
9.38684 -6.98024 18.2112 255 0 0
0.162647 0.256803 1.79649 255 0 0
-23.5165 -19.8966 49.4924 255 0 0
-0.180426 -0.530987 1.45777 255 0 0
-0.335079 -0.0278848 1.77993 255 0 0
-27.929 -13.4254 53.6134 255 0 0
0.338336 -0.996476 3.1804 255 0 0
-177.642 42.3175 428.85 255 0 0
5.93637 -24.0055 126.168 255 0 0
16.3049 -19.8831 57.2974 255 0 0
-35.7384 -24.4792 67.8925 255 0 0
0.193108 3.28561 10.7133 255 0 0
-0.282178 0.427222 1.58174 255 0 0
-4.29509 2.31401 8.75358 255 0 0
-5.85712 1.19702 22.7055 255 0 0
-3.03294 -18.0084 46.7783 255 0 0
-67.7239 6.32252 121.858 255 0 0
296.666 -83.442 493.186 255 0 0
-21.6785 -18.1958 51.3116 255 0 0
-0.800065 -1.03625 2.80425 255 0 0
-17.5854 11.0054 30.2386 255 0 0
61.7955 -3.38035 118.721 255 0 0
-3.67583 1.01599 12.0267 255 0 0
-0.99667 -1.09612 2.87896 255 0 0
48.3962 -8.40498 190.475 255 0 0
-8.44603 -4.99371 18.4747 255 0 0
1.02535 -0.628035 3.36329 255 0 0
0.17683 -0.442774 1.65072 255 0 0
-0.507166 0.205594 2.9832 255 0 0
79.0944 15.4686 153.676 255 0 0
39.0425 -36.7818 95.4377 255 0 0
11.9663 -24.1122 62.1032 255 0 0
-178.259 162.804 353.763 255 0 0
-194.515 30.7901 371.161 255 0 0
0.00152577 0.887767 3.12279 255 0 0
-31.8751 -18.4166 69.5337 255 0 0
-22.1624 -21.96 77.903 255 0 0
36.9848 -22.7697 66.3217 255 0 0
9.14379 -9.01308 23.3201 255 0 0
1.02953 -21.9679 69.6909 255 0 0
-21.0572 -12.8319 36.3617 255 0 0
-0.355532 -0.885711 2.26086 255 0 0
-16.001 -17.0501 60.693 255 0 0
-63.8508 19.3781 149.919 255 0 0
19.4346 -23.714 67.9053 255 0 0
-5.40663 1.08369 10.1305 255 0 0
0.184144 0.361636 1.59728 255 0 0
-0.666959 0.760182 2.16325 255 0 0
-27.929 -12.8191 50.6189 255 0 0
4.27378 -5.56452 31.7407 255 0 0
-35.2524 7.10531 86.5089 255 0 0
3.729 -22.5764 52.693 255 0 0
-16.4462 -14.8658 39.697 255 0 0
-1.15454 -23.856 101.901 255 0 0
-0.342509 0.603764 1.71968 255 0 0
-6.61476 1.19859 19.0329 255 0 0
-3.23077 1.77696 7.46156 255 0 0
-0.22528 -1.31881 6.86078 255 0 0
-2.99478 3.0895 7.58533 255 0 0
32.8838 -22.9981 65.8609 255 0 0
-4.00355 -11.1501 27.8588 255 0 0
-20.3001 13.4283 49.3516 255 0 0
70.5155 -54.9266 141.983 255 0 0
-21.7747 -21.6645 77.4379 255 0 0
-33.1768 7.02559 58.9389 255 0 0
0.624804 -1.85084 4.35257 255 0 0
-1.2028 -1.41897 3.68209 255 0 0
-3.51941 -31.9841 393.027 255 0 0
1.03002 1.58173 3.43863 255 0 0
0.598092 -2.51164 5.85202 255 0 0
-1.99067 -1.38685 4.92925 255 0 0
-9.60426 7.85436 19.2514 255 0 0
4.74459 -6.10784 34.8068 255 0 0
0.307368 -0.825014 2.62947 255 0 0
-25.4483 6.88321 73.2226 255 0 0
-79.9026 -60.5923 140.383 255 0 0
-0.80314 -0.590035 2.43495 255 0 0
-6.17766 3.72684 11.6675 255 0 0
-0.413793 -2.86055 11.1696 255 0 0
-4.74638 2.76541 9.73035 255 0 0
-0.482131 0.597658 1.87198 255 0 0
-65.3448 -57.2136 140.845 255 0 0
-32.2768 -20.1801 62.8925 255 0 0
-42.5711 -20.589 76.3651 255 0 0
-20.9287 -9.14644 35.87 255 0 0
-1.03551 -18.6289 80.0286 255 0 0
-21.2557 -15.9131 50.3493 255 0 0
-0.434922 -3.00517 8.35268 255 0 0
3.84009 -1.74841 7.36817 255 0 0
0.0182675 -0.542367 2.0127 255 0 0
-7.98477 -20.698 53.0154 255 0 0
-55.6051 12.1232 97.2508 255 0 0
0.0506377 0.25291 1.29398 255 0 0
-0.0165216 -0.528969 1.48487 255 0 0
-2.93384 -23.1722 59.4714 255 0 0
-164.362 45.8469 287.444 255 0 0
-62.7875 49.2119 115.746 255 0 0
-48.7566 11.7979 95.5736 255 0 0
-13.7912 -10.3569 41.62 255 0 0
-6.45244 -59.3174 276.397 255 0 0
-25.8771 -16.9814 52.9996 255 0 0
-4.71804 -20.7713 92.3725 255 0 0
