ply
format ascii 1.0
element vertex 965
property float x
property float y
property float z
property uchar red
property uchar green
property uchar blue
end_header
5924.92 4314.5 25518.7 255 0 0
6351.65 5602.51 34161.6 255 0 0
6127.15 3172.68 22918.9 255 0 0
-3566.64 1448.23 8314.53 255 0 0
6041.66 5696.55 36960.2 255 0 0
6206.09 3238.07 23404.8 255 0 0
5912.35 3773.52 21240.2 255 0 0
12798.1 -15495 54853.8 255 0 0
-126100 -870936 -7.75831e+06 255 0 0
16983.3 -10518.2 619507 255 0 0
13586.4 8011.64 63330.7 255 0 0
15123.1 -13798.8 67017 255 0 0
-761.296 36892.4 326741 255 0 0
5977.33 3054.35 14723 255 0 0
14032.4 -16544.4 50098.9 255 0 0
-3651.14 1528.79 8232.13 255 0 0
14118.3 -9455.07 37478.4 255 0 0
14118.9 -6106.51 29560.2 255 0 0
15002.7 -13676.2 66475 255 0 0
6503.52 2087.03 11401.5 255 0 0
12513.5 -8196.82 41709.6 255 0 0
5349.35 2173.95 9049.27 255 0 0
14212.7 -10771.1 59826.3 255 0 0
25084.5 -21542.2 142139 255 0 0
13793.3 -7260.3 94811.7 255 0 0
15033.2 -11216.3 31085.3 255 0 0
-13608.2 -19999.1 70550.1 255 0 0
13033.4 -6260.69 26860.3 255 0 0
17460.4 -13335 43595.6 255 0 0
5805.01 3011.15 16668.3 255 0 0
5193.17 2706.73 14929.5 255 0 0
12723.9 -8823.71 45072.6 255 0 0
16201.1 -11643.7 41603.7 255 0 0
19151.7 -8862.96 181716 255 0 0
10911.3 -8279.72 20185.2 255 0 0
7222.46 5741.87 37859.8 255 0 0
12116.3 -5724.79 51142.7 255 0 0
-24077.6 -12425.1 339433 255 0 0
30774.7 -29862.8 83482.8 255 0 0
14213.5 -9848.07 50368.5 255 0 0
10048.7 -2613.06 46109.5 255 0 0
7453.37 -5529.52 -244398 255 0 0
5824.67 2905.34 15670.4 255 0 0
-4460.04 8221.86 60656.1 255 0 0
-9077.12 -12640.1 48929.6 255 0 0
-12015.2 -15082.9 92333.5 255 0 0
-8373.77 -11844 46438.8 255 0 0
10934.2 -5073.57 50166.5 255 0 0
13786.6 -9993.05 35761.1 255 0 0
-7787.81 -10950.5 42622.2 255 0 0
10011.8 -3300.75 41805.9 255 0 0
13934.3 -12736.9 115137 255 0 0
-18171.7 -14076.4 117756 255 0 0
13350 -12580.8 33052.6 255 0 0
14234.3 -15964.3 66178.2 255 0 0
13737.2 -17442.7 67232.3 255 0 0
11198.5 -8458.32 50698.6 255 0 0
11743 -13192.9 39188 255 0 0
17910.3 -10231 99964.6 255 0 0
6035.05 3094.54 15558.8 255 0 0
12709.1 -10580.4 42423.3 255 0 0
-14886.5 -11553 96344.8 255 0 0
-10268.9 -11683.8 51847 255 0 0
-11310.2 10354.9 220410 255 0 0
15907.6 -13777.6 79040.8 255 0 0
-14904.4 -5901.59 249716 255 0 0
-10128.2 -10939.7 51420.9 255 0 0
10175.7 -5424.59 38083.9 255 0 0
5641.88 2408.25 11851.2 255 0 0
12490.3 -7116.27 46311.8 255 0 0
-5165.52 -7283.86 33142.4 255 0 0
14628.4 -3980.67 96696.5 255 0 0
12390.7 -11958.4 31068.1 255 0 0
15868.5 -12035.2 71504.1 255 0 0
-11084.8 -17466.9 64829.3 255 0 0
848.434 17080.6 122923 255 0 0
16453.8 -17394.4 70628.1 255 0 0
9729.56 -4431.61 24489.7 255 0 0
-8088.14 -15466.9 40005.4 255 0 0
13392.3 -8927.21 31116.4 255 0 0
12541.1 -10494.9 43956.4 255 0 0
13943.3 -13370.1 34895.4 255 0 0
6247.54 2713.91 16033.7 255 0 0
11083.2 -7849.78 22647.8 255 0 0
12219.2 -13655.9 40499.5 255 0 0
13375.1 -11266.2 44470.2 255 0 0
52407.4 -39831.9 112920 255 0 0
10045.6 -3130.37 45918.2 255 0 0
-8752.15 -14245.6 62773.6 255 0 0
16003.7 -11597.3 106319 255 0 0
5927.75 5689.74 40729.7 255 0 0
22182.6 -5158.44 222359 255 0 0
18672.9 -14241.9 40316.8 255 0 0
-5885.72 -2165.25 11289.9 255 0 0
5241.77 2074.67 9039.52 255 0 0
4871.33 23782.7 171363 255 0 0
5902.03 2700.28 15896 255 0 0
-7811.86 -7677.39 62604.8 255 0 0
12584.6 -14806.4 56990.3 255 0 0
6155.63 4480.72 28169.9 255 0 0
11934.6 -7142.99 52313.1 255 0 0
7069.86 18885.8 130327 255 0 0
12939.3 -15079 35164.2 255 0 0
-3164.32 1951.86 9687.85 255 0 0
10335.9 -1608.71 107452 255 0 0
5252.68 1915.47 9312.18 255 0 0
-11793.6 -14623.2 92791 255 0 0
13012.6 -10857.5 45688.2 255 0 0
13180.4 -10191.6 35950 255 0 0
9123.12 -3050.1 24503.9 255 0 0
18169.6 -13444.7 49062.6 255 0 0
13599.9 -10616.4 28071.5 255 0 0
8039.52 -639.48 92508.4 255 0 0
-11225.3 6160.3 107661 255 0 0
62068.3 41581.3 854346 255 0 0
-10726.6 -4989.63 38796.4 255 0 0
23499.7 10444.7 300304 255 0 0
14794.8 -14039.9 89013.4 255 0 0
14276.4 -17589.3 53096.6 255 0 0
-15122.7 -18997.5 103897 255 0 0
15351.6 -11493.6 104869 255 0 0
13898.1 -16907.9 38789.4 255 0 0
-3410.21 1576.64 8235.07 255 0 0
16056.3 -15542 58513.4 255 0 0
14605.4 -10777 36555.2 255 0 0
-9502.96 -12050.7 57324.8 255 0 0
12402.5 -9031.88 58705.8 255 0 0
-3287.85 3014.44 16881.4 255 0 0
10004.5 -8988.09 36708.5 255 0 0
12517.8 -2661.7 53712.2 255 0 0
33846.4 3751.24 369005 255 0 0
6997.97 5138.29 34850.5 255 0 0
27280.6 46512.4 748098 255 0 0
10580.2 -6705.11 26252.2 255 0 0
-45326.7 -34808.7 -883127 255 0 0
13873 -13289.2 50973.6 255 0 0
-11392.9 -8350.92 56214.6 255 0 0
12834.9 -10071.6 24880.7 255 0 0
-8267.47 -16056.5 39996.4 255 0 0
12094.6 -5656.03 41420.3 255 0 0
-13770 -1614.63 211124 255 0 0
19031.4 40335.7 341809 255 0 0
13421.8 7876.49 58697.5 255 0 0
12713 -11539.4 29991.5 255 0 0
-570.139 -3941.86 -28151.4 255 0 0
-16209.2 1169.67 103427 255 0 0
5915.99 4875.8 25388.9 255 0 0
12631.8 -10342.8 109696 255 0 0
-3135.05 -23780.5 -169693 255 0 0
6943.87 3147.97 17264.2 255 0 0
13023.6 -6716.28 37720.7 255 0 0
15434 -12171.5 41434.8 255 0 0
-4327.31 6351.85 48150.1 255 0 0
5459.63 1741.97 9335.8 255 0 0
6271.45 3071.27 19861.8 255 0 0
5301.51 2011.31 8829.71 255 0 0
13915.8 -14233.3 61709.7 255 0 0
9553.55 11178.9 94369.8 255 0 0
6682.64 3140.67 16789 255 0 0
15333.7 -8903.16 127101 255 0 0
-15120.4 -16897.1 89796.6 255 0 0
-2029.22 10992.1 68813.2 255 0 0
15437 7378.33 190326 255 0 0
17957.5 -12007.3 65856.2 255 0 0
-16254.3 -14493.2 102940 255 0 0
17413.3 -11080.4 43111.4 255 0 0
13430.4 -9213.56 30534.7 255 0 0
14590.5 -14962.1 48813.5 255 0 0
13316.1 -9653.26 31850.6 255 0 0
13222.1 -7168.34 46557.3 255 0 0
5595.69 3047.19 16454.3 255 0 0
14021.1 -9541.6 76529.3 255 0 0
-189.912 8473.2 52622.6 255 0 0
11086.9 -2711.18 41199.7 255 0 0
16132.6 -13261.7 57609.9 255 0 0
-14610.7 745.599 110474 255 0 0
13036.8 -7080.89 45826.1 255 0 0
54431.2 -20393.6 381907 255 0 0
6900.31 19848 146006 255 0 0
5544.71 2924.97 11977.7 255 0 0
-3265.6 1431.6 7959.35 255 0 0
-12176.6 -5858.89 58187.3 255 0 0
-74079.3 -103473 -2.65503e+06 255 0 0
16121.2 -15758.6 55630 255 0 0
-3761.48 1456.18 7928.54 255 0 0
12493.6 -12177 43158.5 255 0 0
11786.6 13806.8 303155 255 0 0
-10513 -1135.46 57130.2 255 0 0
13798.7 -11481.4 55331.6 255 0 0
15342.7 -3798.64 56752.6 255 0 0
6540.49 3731.63 25746.9 255 0 0
-18292.1 14870.3 270228 255 0 0
5692.84 3910.66 18350.1 255 0 0
16585.2 -16600.6 60162.3 255 0 0
4491.67 5234.78 43293.5 255 0 0
20892.5 -20685.4 67695.6 255 0 0
13550.9 -8438.57 31475.4 255 0 0
5219.58 2167.55 9229.5 255 0 0
13065.6 -7429.19 51833.5 255 0 0
-8102.29 -4651.49 16518 255 0 0
-8744.54 -5009.94 17837.1 255 0 0
11622.4 -11514.8 37744.8 255 0 0
6199.83 5066.33 30360.6 255 0 0
6543.67 2860.17 15891.7 255 0 0
13398.4 -9053.36 35823 255 0 0
-30405.8 -802.734 383436 255 0 0
-33644.6 -37352.8 125197 255 0 0
8055.73 -1955.99 30981.9 255 0 0
13714.5 -6197.96 33432.5 255 0 0
-11090.2 -12992.4 48176.1 255 0 0
-4017.42 6351.97 40087.9 255 0 0
5956.54 2468.44 12044.9 255 0 0
-8147.02 6979.56 73670.1 255 0 0
15312.4 -12909.3 59274.5 255 0 0
11119 -6542.57 44772.4 255 0 0
13217.7 -5937.32 32182 255 0 0
25115.4 17407.6 306777 255 0 0
13160.2 -5613.62 62325.9 255 0 0
-9896.31 -11260.8 48189.2 255 0 0
15678.6 -13059.3 60175.4 255 0 0
14480.8 -233.214 105023 255 0 0
21180.9 -8821.23 138103 255 0 0
16007.2 -6361.2 63937.2 255 0 0
14663.8 -13494.3 41438.2 255 0 0
6215.82 3242.78 21842.5 255 0 0
-10265.4 -11303.1 38043.7 255 0 0
5688.11 3974.57 18458.8 255 0 0
6155.26 6349.04 37796.6 255 0 0
-3146.18 -3792.29 -81540.8 255 0 0
-18872.4 -17556.8 198455 255 0 0
-20062.4 -505.629 251126 255 0 0
12914 233.814 84690.8 255 0 0
17776.9 -18257.4 85098.9 255 0 0
7123.76 3291.22 17578.1 255 0 0
-10527.3 -5770.6 30254.4 255 0 0
-11152.8 -9023.2 53744.6 255 0 0
-4015.32 1528.97 8358.12 255 0 0
50953.5 -19454.1 188868 255 0 0
18427.5 -5664.23 69376.8 255 0 0
-5611.13 -2081.97 11952.1 255 0 0
13020.7 -12246 51463.4 255 0 0
5567.54 3056.9 15126.1 255 0 0
5842.63 2986.96 15104.3 255 0 0
-4750.79 1571.8 10201.2 255 0 0
-9775.96 8513.87 67029.6 255 0 0
-10144.8 -12632.2 49471.9 255 0 0
-10445.6 -11880.9 58797.3 255 0 0
-10471.4 6756.79 53096.1 255 0 0
-14238.4 7627.5 257541 255 0 0
5950.65 3434.3 17806.3 255 0 0
6549.79 3403.02 15408.6 255 0 0
11862.8 9439.58 123361 255 0 0
-13381.4 11397.2 126103 255 0 0
13656.2 -16206.6 38061.7 255 0 0
12768.8 -8344.75 84346.6 255 0 0
-7001.72 -2327.97 16327.6 255 0 0
14279.8 -6404.47 27539 255 0 0
11646.3 5288.96 90735.5 255 0 0
5814.06 3565.53 18073 255 0 0
18053.9 5026.95 126597 255 0 0
-9324.27 -1977.02 30198.6 255 0 0
12963.5 -6133.45 46802.7 255 0 0
-12454.9 -13809.1 52857.2 255 0 0
27216.6 -11068.6 176425 255 0 0
8073.09 5591.31 38881.2 255 0 0
12990.2 -5701.89 34685.5 255 0 0
-12150.5 -10599.7 53548.2 255 0 0
5970.66 6325.74 36808.9 255 0 0
-8542.19 -4477.22 21954.8 255 0 0
-20298.1 2714.79 318835 255 0 0
11702 -13763.3 32826.3 255 0 0
13231.3 -9120.44 32746 255 0 0
11979.6 -6416.08 40297.4 255 0 0
12199.8 -4977.13 25023 255 0 0
6214.61 2060.22 10509.4 255 0 0
6087.29 3307.5 17229.8 255 0 0
15134.9 -11694 51378.5 255 0 0
13312.2 -11027.7 31558 255 0 0
5677.27 2894.61 17324.1 255 0 0
13825.5 -5897.98 36484.6 255 0 0
-9241.68 -10824.9 36921.3 255 0 0
-9700.62 -11357.4 38683.1 255 0 0
9795.9 -6641.05 16347.2 255 0 0
5551.33 3368.55 -41208.9 255 0 0
15092.4 -9322.79 44448.7 255 0 0
6533.53 3400.82 22492.8 255 0 0
4661.85 7822.44 51665.2 255 0 0
12019.2 -12597.9 29398.6 255 0 0
14738.3 -8378.78 109700 255 0 0
-6093.6 -2358.98 11025.1 255 0 0
-9508.98 -1670.01 35690.6 255 0 0
15798.9 -6074.3 62761.8 255 0 0
6243.59 3497 17891.3 255 0 0
-10439.1 -13241.2 56864 255 0 0
13445.6 -11022.3 30258.3 255 0 0
5457.25 1816.14 9901.44 255 0 0
-5983.64 -2251.02 10452.5 255 0 0
-774.411 8649.98 50297.2 255 0 0
-13756 36526.1 741416 255 0 0
9406.42 -937.296 42247.7 255 0 0
14492.8 -15213.4 58139.1 255 0 0
-8862.06 -4943.03 20482.4 255 0 0
-8741.12 -4715.63 17156.6 255 0 0
6157.94 3147.94 18598.9 255 0 0
13540.6 -13772.9 57015.7 255 0 0
-5269.21 -10459.6 28726.5 255 0 0
12829 -8122.23 29626.3 255 0 0
12852.6 -8529.38 54163.1 255 0 0
-9431.16 10908.4 84252.4 255 0 0
-8856.38 -5548 22598.7 255 0 0
-10295.7 -5766.61 27447.5 255 0 0
-8682.23 -1799.46 27322.8 255 0 0
24227.9 1195.32 295915 255 0 0
13300.5 -11168.2 59917.7 255 0 0
-5493.09 3824.15 74411.9 255 0 0
-7375.05 -14435.2 39578.2 255 0 0
13382.6 -12610.8 45886.9 255 0 0
5801.67 2220.73 10508 255 0 0
6292.85 4192.22 26970.7 255 0 0
-27960 33072 409608 255 0 0
-5949.45 -2075.22 13121.3 255 0 0
-15702.9 -9121.25 132034 255 0 0
-5738.91 -2024.22 11604.7 255 0 0
-14751.5 -15729.8 101348 255 0 0
-8052.77 -1231.03 29856.1 255 0 0
11872.2 1721.74 39949 255 0 0
33662.8 -29432.4 225643 255 0 0
5912.89 4931.55 23562 255 0 0
4498.26 7555.31 49875.2 255 0 0
-3944.15 1402.13 7882.17 255 0 0
-9801.32 -8531.72 23025.7 255 0 0
11875.7 -7697.49 53431 255 0 0
13408.6 -12442.7 39372.6 255 0 0
11178 -5320.3 40995.9 255 0 0
-16930 -23655.6 150606 255 0 0
13820.1 -8649.66 95836.9 255 0 0
12837.5 -9199.76 24782.1 255 0 0
-3173.61 3327.27 15677.4 255 0 0
5420.14 2871.39 11384.7 255 0 0
-9243.67 -7581.18 18919.5 255 0 0
12274.4 -9254.87 23880 255 0 0
13255.9 -12257.2 46536.8 255 0 0
8922.97 -1900.05 30043.4 255 0 0
-10463.3 -4797.06 33805 255 0 0
5623.92 1839.16 9520.06 255 0 0
10558.2 -7031.02 40216.4 255 0 0
7517.31 13612.8 90046.6 255 0 0
4767.81 8643.41 57372.3 255 0 0
13537 -13976.3 36841.9 255 0 0
-9181.02 -8228.84 25053.5 255 0 0
6798.75 14436.3 99180.3 255 0 0
-8652.17 -6498.96 32870.7 255 0 0
14985 -9949.15 52395.7 255 0 0
5481.65 2429.25 10364.8 255 0 0
753.141 -35905.5 -747200 255 0 0
-9489.56 -8256.17 22288.8 255 0 0
5440.39 2042.52 9368.4 255 0 0
-9460.05 38.7095 48374.5 255 0 0
14863.4 6689.87 141557 255 0 0
5587.46 1896.37 10388.9 255 0 0
-13620.7 5640.2 194792 255 0 0
12698.9 -12304.1 35231.4 255 0 0
-9093.07 3206.4 49639.6 255 0 0
11977.5 -21681.3 76940.7 255 0 0
12547.4 -12043.1 30165.1 255 0 0
18806.8 -13611.7 130827 255 0 0
18366.5 -7304.61 36973.3 255 0 0
13758 -5714.13 31227.2 255 0 0
9883.05 -3843.41 108980 255 0 0
9655.49 -2080.27 32493.3 255 0 0
13186.3 -5469.06 28478.8 255 0 0
11342.5 -4730.84 24514.9 255 0 0
12814.7 -16341.5 37011.3 255 0 0
10998.6 -10715.8 29474.5 255 0 0
-12859.3 -18586.5 118326 255 0 0
-3822.93 2414.99 17012.9 255 0 0
13046.3 -12292.4 54967.6 255 0 0
-10777.6 -15053.3 110587 255 0 0
-11727.3 -9816.2 68155.9 255 0 0
-10750.5 -15701.4 41622.1 255 0 0
-23612.9 -13931.8 172970 255 0 0
5278.83 2578.37 11631 255 0 0
14010 -7176.32 42886.5 255 0 0
-8702.23 -4928.15 19264.9 255 0 0
348902 826534 2.46576e+07 255 0 0
-12637 -1804.67 56007.2 255 0 0
11939.3 -2907.95 70770.6 255 0 0
-3107.28 1637.83 10917.6 255 0 0
19804.1 7905.97 199649 255 0 0
-38072.8 -25701 -424913 255 0 0
-10303.1 987.236 84175.5 255 0 0
14528.1 -15421.9 39634.6 255 0 0
-8405.29 -4218.52 14780.3 255 0 0
-9547.29 -1307.93 47108.1 255 0 0
5190.77 3071.65 20434.6 255 0 0
31350.7 -12244.6 100765 255 0 0
5969.29 4503.82 21060 255 0 0
18633.3 -18532.5 51710.8 255 0 0
-4566.92 5579.99 32614.2 255 0 0
6758.42 5348.33 -67237.7 255 0 0
-3022.27 7141.67 40515.7 255 0 0
14316.7 -7754.41 109090 255 0 0
-3495.54 4677.28 24399.4 255 0 0
-3178.44 2884.1 16809.7 255 0 0
11527.2 -9603.93 51925.9 255 0 0
-22982 -23939.1 290699 255 0 0
15462.8 -8013.25 31978.2 255 0 0
-9487.51 -1389.68 47698.2 255 0 0
11551 -2584.13 32994.2 255 0 0
-3010.9 7200.65 40179 255 0 0
-5953.65 -1714.92 13785.7 255 0 0
13205.9 -2974.22 53357.7 255 0 0
12972.6 -7072.31 27676.9 255 0 0
-9295.52 -10218.4 23792.1 255 0 0
-10527 -1366.92 51806 255 0 0
18849 -4244.91 53732.4 255 0 0
-4712.13 2360.81 15864.8 255 0 0
-10952.6 -8872.35 50527.9 255 0 0
-13606.1 -8798.08 63804.5 255 0 0
13781.1 -12967.1 41275.1 255 0 0
5998.9 5036.23 35440.2 255 0 0
-503.315 9620.12 66457.2 255 0 0
11568.2 -2544.79 32316.4 255 0 0
18476.1 -11152.6 33810.3 255 0 0
-14333.3 -12132.9 97728.6 255 0 0
13206.4 -8152.39 37000.3 255 0 0
-4462.28 6134.36 33992.4 255 0 0
18139.6 -9486.25 40220.9 255 0 0
-6749.08 -2011.33 29965.3 255 0 0
-4218.48 2325.27 16568.5 255 0 0
17386.4 -12725.7 69658.1 255 0 0
-9052.58 -7679.35 24686 255 0 0
13456.8 -4791.02 43091.7 255 0 0
14239.4 2674.73 96192.3 255 0 0
14372.1 -7541.42 29922.1 255 0 0
13787.6 -6867.3 37062.3 255 0 0
6617.56 478.355 32764.3 255 0 0
-9639.11 -2835.64 45838.7 255 0 0
15525.7 -9503.19 49212.4 255 0 0
21238.9 -20552.9 116147 255 0 0
-8688.2 -7194.01 18055.7 255 0 0
5416.18 3142.12 12191.2 255 0 0
17432.4 -26337.2 67967.1 255 0 0
12614.2 8294.93 64851.3 255 0 0
15434.9 -16049.5 59225.9 255 0 0
-3222.75 1603.18 8099.45 255 0 0
13549.7 -4393.37 37775.1 255 0 0
-8714.86 -7193.64 18091.1 255 0 0
17680.3 -23560 66587.8 255 0 0
-9092.35 -4294.11 22556.9 255 0 0
14890 -10314.5 32356.4 255 0 0
-8423.73 -11409.5 33778.5 255 0 0
-8606.83 -9054.76 22083.7 255 0 0
5508.96 3006.36 12240.2 255 0 0
-13321 -5261.28 110538 255 0 0
-9024.54 -6138.31 23214.6 255 0 0
-7835.24 -4263.15 17658.8 255 0 0
6367.65 15700.4 99382.2 255 0 0
-2269.21 2405.97 6536.46 255 0 0
-4198.8 2458.82 13956.6 255 0 0
-9672.38 2830.32 29948.7 255 0 0
-11099.2 -8376.96 38886 255 0 0
10306.7 6322.29 55367.2 255 0 0
6560.74 6151.74 52084.4 255 0 0
10628.8 -15259.1 57139.3 255 0 0
11797.6 -4641.07 29155.5 255 0 0
-5453.94 -1875.2 11681 255 0 0
-58215.9 115143 1.51118e+06 255 0 0
-17517.4 1592 327428 255 0 0
12636.4 -8444.76 30313.1 255 0 0
-2751.44 2618.03 15738.8 255 0 0
7496.34 -2327.77 14362.5 255 0 0
-11842.1 -4790.48 51226.3 255 0 0
-14492.7 -15519.1 107046 255 0 0
14162.8 -21531.6 57453.7 255 0 0
13021 -10816.1 26782.9 255 0 0
-4289.39 2395.43 16627.8 255 0 0
2709.84 8889.61 57295.8 255 0 0
2584.77 26709 166416 255 0 0
-5421.79 -1756.08 12162.7 255 0 0
22156.9 -14232.7 209508 255 0 0
-8886.75 -6528.36 22567.9 255 0 0
-10086.3 -1669.5 45896.2 255 0 0
12537.3 -8058.1 35020.6 255 0 0
12587.9 -12374.9 29932 255 0 0
22761.9 -26778.6 168260 255 0 0
-11247.9 -14278.1 138873 255 0 0
-9331.17 -1249.63 32555.3 255 0 0
3780.14 2203.08 20148.7 255 0 0
-4195.06 1989.4 16144.7 255 0 0
13486.1 -13028.6 38814.2 255 0 0
-1452.92 -202.45 14074.6 255 0 0
2075.08 15176.2 84323.8 255 0 0
-11321.2 -4261.71 46562.1 255 0 0
-1739.52 7259.76 44584.8 255 0 0
-11015.6 -14946.6 50556.6 255 0 0
-3364.46 1555.52 7824.51 255 0 0
-8899.74 -7892.99 20033.6 255 0 0
-20824.7 33734 374274 255 0 0
-3336.62 3961.93 21267.6 255 0 0
15889 8508.5 173766 255 0 0
-10910.3 -8910.22 49074.2 255 0 0
6391.2 4938.23 37624.2 255 0 0
8797.45 -9878.79 74688.6 255 0 0
-11664 -4325.39 72242.6 255 0 0
-9965.54 -5216.14 73504.9 255 0 0
13772.2 -6136.52 28326 255 0 0
-9269.67 -4403.52 22719.5 255 0 0
61627.2 47934.5 -608309 255 0 0
-6266.26 -2166.06 10907.5 255 0 0
14385 -7455.96 29964.5 255 0 0
7634.61 10276.7 81538.1 255 0 0
8962.59 3399.7 62592.2 255 0 0
-8039.36 -8360.93 20617.4 255 0 0
-11969.5 -2072.08 67500.1 255 0 0
-21656.2 7724.62 185658 255 0 0
18084.3 -151306 -1.48151e+06 255 0 0
6269.76 7376.49 45832.8 255 0 0
7642.02 3321.7 14699.5 255 0 0
20599.3 -5066.21 45539.1 255 0 0
-5873.54 -1717.86 13979 255 0 0
-3181.39 2561.06 10212.2 255 0 0
16288.3 -486.271 90504.7 255 0 0
-5853.84 -1968.18 11514.1 255 0 0
10823.1 3524.59 23071.3 255 0 0
-1763.44 7828.85 45217.8 255 0 0
5244.31 3159.25 10592.5 255 0 0
-10192.1 -5998.36 45185 255 0 0
9947.14 -3343.17 17805.5 255 0 0
-9035.93 -9542.98 22958.7 255 0 0
-8181.87 -645.587 22216.4 255 0 0
5928.58 7416.42 44027.5 255 0 0
-8803.71 -6095.38 18035 255 0 0
-8689.37 -4178.85 18164.7 255 0 0
11821.9 1981.93 78731 255 0 0
-12328.1 -5411.7 37184.8 255 0 0
-6090.29 -2414.65 12900.6 255 0 0
-10423.6 -1180.94 64336.9 255 0 0
-10365.3 -6542.72 33569 255 0 0
5891.61 4111.27 18502.6 255 0 0
34096.2 -36595 304303 255 0 0
-3823.32 3114.14 20508.1 255 0 0
-15277.8 -10624.6 32570.7 255 0 0
-6064.63 4774.96 33440.1 255 0 0
5268.59 2302.83 10169.8 255 0 0
7185.08 -2354.16 13555 255 0 0
-10032.3 -6928.1 51207.3 255 0 0
13080.5 -13204 34468.5 255 0 0
12339.4 -4536.9 61833.8 255 0 0
15903.8 -1972.34 243967 255 0 0
6159.2 4003.94 16092.9 255 0 0
6969.79 3977.39 27246.9 255 0 0
-11336.8 -1413.92 46163.3 255 0 0
12755.8 -3559.17 42918.3 255 0 0
12687.4 -2675.01 68150.3 255 0 0
14894.6 -5542.85 72640.8 255 0 0
-8611 -6892.14 24201.4 255 0 0
11605 7704.7 63406.5 255 0 0
-8947.54 -6635.39 71491.8 255 0 0
14684.4 -4819.66 43392.7 255 0 0
-16334 -12121.4 151661 255 0 0
13976.9 -13269.7 43539.5 255 0 0
13186.1 -5234.78 30697.4 255 0 0
-6068.8 -1810.45 12226.5 255 0 0
13318 -4940.46 25899.6 255 0 0
25353.7 -31341.3 74911 255 0 0
10439 -7823.71 18651.8 255 0 0
-8709.07 -3997.09 25044.4 255 0 0
5030.74 -4970.22 75492.4 255 0 0
-10684.7 -9060.93 44087.6 255 0 0
-10150 -5264.02 45308.3 255 0 0
-3246.72 2570.88 11383.4 255 0 0
-12906.2 3718.03 44316.6 255 0 0
11458 -12769.3 40955.8 255 0 0
-2848.97 6461.52 42095.6 255 0 0
-14125.1 2869.47 164427 255 0 0
17553.2 -15335.4 52359.3 255 0 0
-9974.85 -7167.54 23346.1 255 0 0
-8728.38 -4402.07 17526.3 255 0 0
-1604.05 7152.44 42442.8 255 0 0
10679.4 -5815.28 19977 255 0 0
-3398.3 1707.28 8170.82 255 0 0
-9326.02 7619.1 111145 255 0 0
-11660.5 1978.9 50038.5 255 0 0
-10114.8 -14840.6 -260150 255 0 0
-4070.77 1962.58 15520.9 255 0 0
33297.9 -10385.9 295318 255 0 0
16190.8 -151146 -2.99329e+06 255 0 0
12832.3 -12680.4 86218.4 255 0 0
-9157.31 -4428.68 25907.8 255 0 0
-8308.07 -7451.66 31202 255 0 0
-2950.29 3064.68 11762.2 255 0 0
-3014.28 1576.99 7381.2 255 0 0
-3778.64 1468.63 7087.57 255 0 0
-36464.1 -45843.7 372538 255 0 0
15392.2 -4157.29 85613.7 255 0 0
-1362.64 -9266.23 -48855.7 255 0 0
-6074.79 -2478.7 11530 255 0 0
12736.4 -8822.82 33875.6 255 0 0
13084 4847.05 32226.3 255 0 0
10797 4145.82 73520 255 0 0
-12174.7 -5679.85 78381.6 255 0 0
-20752.7 -27105 336679 255 0 0
-9200.49 -7485.39 22496.2 255 0 0
9719.57 -3153.91 49641.6 255 0 0
-10903.2 -12547.5 110720 255 0 0
10063.4 -4229.64 30754.1 255 0 0
-9246.15 -6861.58 23177.9 255 0 0
-9508.78 -8052.64 19406.1 255 0 0
-5630.21 2518.06 19975.8 255 0 0
-12137.7 -2170.27 144456 255 0 0
15110.6 -5665.19 44641.1 255 0 0
-8309.42 -2741.55 22512 255 0 0
6028.55 1766.33 17800.7 255 0 0
-9125.81 -7330.76 22338 255 0 0
-823096 7.49343e+06 1.31075e+08 255 0 0
-8769.23 -3800.64 21655.4 255 0 0
9698.8 -1612.41 30007.9 255 0 0
9842.6 -3708.33 18707.1 255 0 0
-16506 485.835 202506 255 0 0
-17040.5 15171.5 -126494 255 0 0
-12475.7 4386.45 96752.8 255 0 0
-5926.17 2741.55 23223.7 255 0 0
16069.6 -23574.9 67260.4 255 0 0
-8187.28 -7767.47 20833.7 255 0 0
24263.3 -21749.6 161255 255 0 0
10956.3 -8499.86 114957 255 0 0
13292.2 -14381.9 32682 255 0 0
5925.09 2629.85 11565.4 255 0 0
-10028.3 -4581.35 38503.7 255 0 0
-3226.66 2405.51 10174.7 255 0 0
-541450 63832.8 -8.27381e+06 255 0 0
5354.39 2382.08 10462.6 255 0 0
-3263.75 1732.75 8288.3 255 0 0
-3543.77 2435.3 11587.9 255 0 0
-7942.61 -365.932 21789.6 255 0 0
-9722.72 -9955.04 31876.9 255 0 0
-5704.15 -1872.57 11179.8 255 0 0
-6730.66 1681.89 26807.5 255 0 0
-3442.69 2217.77 8185.76 255 0 0
8682.23 -1465.24 26882 255 0 0
-9164.63 -435.383 42817.2 255 0 0
13286.2 -6278.29 52260.4 255 0 0
-10012.9 7254.98 98225.8 255 0 0
24277.4 9730.98 94235.8 255 0 0
-16934.3 -24146.9 289046 255 0 0
-2175.07 2389.29 6763.91 255 0 0
-8297.64 -6425.43 24443.7 255 0 0
-2328.24 2519.96 7196.37 255 0 0
-14564.5 6403.93 74999 255 0 0
-2261.68 2444.56 6985.2 255 0 0
-3392.83 2513.02 8413.86 255 0 0
-13224 -12791.9 51006 255 0 0
6571.59 2365.56 12686.9 255 0 0
-7565.69 -2708.83 12444.5 255 0 0
14939.1 -14042.1 60752.3 255 0 0
-10789.7 1488 48018.2 255 0 0
-11462.6 4094.01 71732.8 255 0 0
-4550.97 6377.56 45734.3 255 0 0
11423.8 -3358.83 34705.3 255 0 0
-9144.39 -10327.1 30137.2 255 0 0
-8230.66 -3934.73 14375.2 255 0 0
-10342.5 -4327.12 40869.4 255 0 0
-10284.7 -7457.14 33387.2 255 0 0
4779.83 2551.35 9319.62 255 0 0
16409.8 -14681.9 60232.1 255 0 0
5522.43 2429.48 10033.6 255 0 0
-4190.52 7403.65 39497.8 255 0 0
13236.5 -7771.25 36148 255 0 0
15224.7 -12488.7 56613.3 255 0 0
-7708.28 -2890.33 18726.4 255 0 0
-8552.87 -9464.95 24324.3 255 0 0
-2399.23 6542.01 42927.1 255 0 0
11953.5 6948.31 58989.5 255 0 0
13040.4 -4914.45 24883.6 255 0 0
7152.82 7190.41 37839.1 255 0 0
-8881.64 -10414.9 37031.1 255 0 0
11953 4299.06 28368.2 255 0 0
43949.4 -41890.6 299221 255 0 0
-21281.5 6098.48 171741 255 0 0
6262.11 3209.78 14122.9 255 0 0
-15347.2 -205.69 110088 255 0 0
82629.1 -34296.2 676193 255 0 0
-9453.83 -4255.74 28473 255 0 0
-9629.44 -7135.57 41225.3 255 0 0
-7062.21 13238.7 -75925.1 255 0 0
-9719.56 -12627.2 36753.5 255 0 0
-10162.4 -671.948 34968.9 255 0 0
-9197.24 -2464.46 32874.2 255 0 0
-5656.58 7222.27 74684.2 255 0 0
-11347.9 5497.43 82453.2 255 0 0
14886.2 -27069 -142922 255 0 0
-9675.52 1999.38 23732.7 255 0 0
-10285.8 -1028.08 39993.9 255 0 0
-9281.95 -2166.88 34263.6 255 0 0
13213.9 3101.21 30382.9 255 0 0
13811.9 -8140.29 46610.4 255 0 0
-8238.78 -2330.06 22581 255 0 0
-18900.3 -7119.72 236350 255 0 0
12508.5 7333.52 101708 255 0 0
-13602.6 -4791.03 56443.9 255 0 0
-45550.9 -1926.89 296796 255 0 0
-4592.72 5008.87 30966.9 255 0 0
-11162.5 8349.09 107498 255 0 0
-3439.02 1878.71 8203.5 255 0 0
9019.9 -14151.5 38046 255 0 0
-9618.81 -2670.53 66079.9 255 0 0
10935.7 -11126.4 25641.5 255 0 0
-10853.8 -11168.8 50532 255 0 0
-10333 6383.47 94024.2 255 0 0
-28331.2 17647.7 134052 255 0 0
17623 -2207.28 -103131 255 0 0
11250.3 -4789.27 20178.8 255 0 0
13432 -14235.3 38605.7 255 0 0
16336 -11829.6 48779.1 255 0 0
-3563.94 3155.76 12012.8 255 0 0
-8208.22 -9050.79 23337.3 255 0 0
-12370.6 -5921.74 67681.8 255 0 0
-12992.2 -6947.46 41902.2 255 0 0
23698.5 7409.46 111818 255 0 0
-8996.12 -5162.99 16684.7 255 0 0
-9794.93 2450.42 32213.4 255 0 0
-8671.67 -7470.67 16868.2 255 0 0
-3924.2 2152.9 14789.8 255 0 0
5207.34 2077.26 9662.2 255 0 0
13767 -13014.1 94010 255 0 0
14206.3 -25058 56828.4 255 0 0
8934.62 -4769.56 24541.3 255 0 0
-10962.7 3038.77 38576.4 255 0 0
-4858.91 2193.1 17677.3 255 0 0
12125.2 -5188.2 45414.9 255 0 0
5486.98 2206.39 10309.3 255 0 0
11694.7 -12245.5 43365.5 255 0 0
-328409 -111718 -3.0005e+06 255 0 0
-8930.92 -8006.46 45181.7 255 0 0
-3024.55 3515.23 17365.1 255 0 0
12039.1 -8162.33 47933.2 255 0 0
-8246.88 5930.69 77857.2 255 0 0
-18390.8 -3677.48 120648 255 0 0
26760.9 -10538.9 318427 255 0 0
-12315.5 -6496.93 39709.4 255 0 0
17960.7 -19391.8 134392 255 0 0
215796 -193453 2.5861e+06 255 0 0
-7143.89 -1564.15 19375.3 255 0 0
11804.1 -16287.1 235167 255 0 0
-7985.57 10248.8 71763.8 255 0 0
-11763.9 -284.556 74922.3 255 0 0
-10198.3 -8660.88 19745.5 255 0 0
7492.15 -2416.02 14763 255 0 0
-7833.49 -6838.89 15817.4 255 0 0
11277.2 -19744.8 46750.4 255 0 0
-9906.03 -9691.69 36945.4 255 0 0
29232.3 -34995 149252 255 0 0
-15008.7 8976.87 70618.1 255 0 0
-42130.6 64053.5 1.56827e+06 255 0 0
-10428.6 -2356.32 71110.1 255 0 0
-18077.5 31242 -74297.6 255 0 0
-3763.31 1367.86 6914.45 255 0 0
-3580.07 2906.4 17416.2 255 0 0
-3465.85 6268.77 39397.2 255 0 0
-3312.03 1926.84 9534.74 255 0 0
-3654.01 2294.99 7810.23 255 0 0
-9143.08 -7242 21003.8 255 0 0
6684.3 1783.64 12007.9 255 0 0
-9363.04 760.78 47731.1 255 0 0
-8516.69 -9983.83 26374.8 255 0 0
12429.4 -4936.61 36034.3 255 0 0
-10146.5 -2873.55 42598.9 255 0 0
10954.5 -414.87 67725.9 255 0 0
8793.54 -2402.83 24931.7 255 0 0
-4026.83 1559.41 7781.83 255 0 0
11662.7 -17734.8 47354.4 255 0 0
-9108.72 -5776.3 31409.8 255 0 0
-10952.9 -12863.3 35518.5 255 0 0
-2386.58 3429.02 16382.6 255 0 0
5300.87 6361.26 43277.7 255 0 0
12574 -16138.9 36841.6 255 0 0
62034.8 -40272.4 531232 255 0 0
-15343.5 -4391.9 89780.4 255 0 0
7751.88 3845.73 32313.3 255 0 0
5801.59 2148.18 10876.7 255 0 0
14319.9 -6230.93 42310.9 255 0 0
19170.2 -14805.5 70860.2 255 0 0
13099.8 -5143.15 36574.8 255 0 0
4378.89 792.264 -21964.1 255 0 0
7400.95 1928.75 13283.9 255 0 0
-2218.09 2332.62 6116.86 255 0 0
8825.04 4142.75 39809.7 255 0 0
-10755.3 -3732.16 55291 255 0 0
11585.6 -5028.52 19776.1 255 0 0
5562.29 4815.27 26462 255 0 0
-10949.9 -5527.2 42380 255 0 0
-8616.46 -6771.58 22314.8 255 0 0
-9347.27 -7645.44 21260.9 255 0 0
-8840.21 -4138.04 18672.2 255 0 0
-8337.52 -2834.18 21565.4 255 0 0
-3661.96 2934.01 17470.2 255 0 0
12408.9 -3881.74 39415.3 255 0 0
-9020.16 1033.58 22097 255 0 0
12762.7 -4495.61 36612.8 255 0 0
9422.21 -6472.78 16069.6 255 0 0
4756.84 1891.48 8609.22 255 0 0
-2075.89 2559.83 6976.19 255 0 0
-28343.6 8266.63 367372 255 0 0
-9763.52 -5526.13 34480.9 255 0 0
-9287.62 -10585.9 24339 255 0 0
-9050.76 -11157.2 30172.3 255 0 0
116072 -174655 -1.47975e+06 255 0 0
16621.1 -17709.2 49151.7 255 0 0
14794.8 -11729.6 92108.1 255 0 0
13238.9 -9502.3 43303 255 0 0
-24950.5 -6797.86 191881 255 0 0
13210.6 -13793.2 31530.3 255 0 0
13526.6 4304.52 32759.8 255 0 0
-9150.15 -4450.81 20066.9 255 0 0
-3721.53 1230.53 6744.86 255 0 0
19339.6 -3430.73 272326 255 0 0
-10367.8 -8600.08 35935.7 255 0 0
13071.2 -3771.24 41616.9 255 0 0
15963.7 5920.36 146297 255 0 0
-9881.6 912.5 46775.4 255 0 0
13740.3 -6826.14 29179.8 255 0 0
-3644.56 1212.78 6603.08 255 0 0
-7461.08 -5636.72 20352.9 255 0 0
-10515 -12937.3 35066.4 255 0 0
12350.4 -4752.87 31684.9 255 0 0
10592.1 -4624.68 17657.5 255 0 0
6216.64 5288.56 28967.1 255 0 0
-6160.89 -2480.55 12659.3 255 0 0
15163.8 -4286.47 41513.9 255 0 0
-3910.73 2510.49 16488.9 255 0 0
-4571.55 1327.35 7669.05 255 0 0
8398.14 8895.86 75337.1 255 0 0
8685.92 -155.606 41112.3 255 0 0
-3236.2 2624.26 10974.2 255 0 0
59952.8 80654.5 880940 255 0 0
15327.7 -5262.61 58099.1 255 0 0
18487 -26000.9 64863.1 255 0 0
-6794.12 -2823.95 43625 255 0 0
4917.73 6321.27 41422 255 0 0
-10070.1 188.417 57265.5 255 0 0
27576.4 -12238 158514 255 0 0
-3584.92 2184.85 8322.2 255 0 0
9020.63 -6857.85 68448.2 255 0 0
15077.4 -6287.7 37703.6 255 0 0
-3235.69 2583.51 10881.5 255 0 0
-12238.2 -14867.1 42702.6 255 0 0
9562.68 -11051.2 26303.9 255 0 0
15127 -14802.5 44816.3 255 0 0
-7644.2 -8427.6 20071.7 255 0 0
-8241.3 -12211.7 33210.9 255 0 0
13129.4 -21058.3 54050.8 255 0 0
-8309.56 -6304.36 16274 255 0 0
13218 -11872.5 55666.7 255 0 0
-9781.21 -9643.52 36125.5 255 0 0
21002.6 -17540.6 232207 255 0 0
5196.58 658.396 29390 255 0 0
15936.1 -10764.3 64780.4 255 0 0
-10768.1 2301.66 81176.6 255 0 0
151689 -629396 -6.36936e+06 255 0 0
12417.4 -4303.77 36709.1 255 0 0
-3177.36 1661.42 8469.37 255 0 0
-6728.28 -68.214 17200 255 0 0
-10975.4 -11626.8 45737.7 255 0 0
5839.43 3414.82 16442.9 255 0 0
-11327.6 1381.51 46932.3 255 0 0
-3909.06 2115.04 7753.82 255 0 0
-9685.86 -17355.7 42652.9 255 0 0
5086.77 3157.73 10995 255 0 0
-11478.8 6121.2 84509.8 255 0 0
10609.3 -4558.28 18543.1 255 0 0
-8208.5 2399.65 18190.7 255 0 0
-8523.38 -6738.22 17177.4 255 0 0
-8802.21 -7255.07 30883.9 255 0 0
47580.6 -80665.7 380565 255 0 0
9145.09 -6327.91 15085.1 255 0 0
-10354.1 5600.69 84201.2 255 0 0
5880.67 3266.86 13683.6 255 0 0
-7643.46 -4764.25 20560.9 255 0 0
-10690.9 2140.04 30467.6 255 0 0
-10879.8 -6262.62 42204.8 255 0 0
5710.52 2615.55 12028.3 255 0 0
5558.42 -9520.42 44881.3 255 0 0
12030.4 -3674.29 30475.4 255 0 0
9432.82 -7077.31 16266.1 255 0 0
5294.61 2875.42 11257.1 255 0 0
-6370.94 -6627.93 48525.3 255 0 0
-9159.48 -4451.76 18940 255 0 0
-13723.9 -10421.8 54833.3 255 0 0
-9118.26 107.743 32212.6 255 0 0
-10318.3 -4740.41 42377.1 255 0 0
-9925.13 -11857.3 37105.1 255 0 0
-9090.89 -10840.3 31476.5 255 0 0
5259.57 6631.56 42481.2 255 0 0
7843.86 3412.1 17118.9 255 0 0
-17430.8 -7754.82 204518 255 0 0
5848.7 7894.87 48803 255 0 0
-32436.3 -1435.19 244446 255 0 0
-9012.12 -10429.1 32816.2 255 0 0
-5994.38 -2074.07 10906 255 0 0
-9711.2 -4320.21 24656.1 255 0 0
-8441.51 -4629.53 15843.8 255 0 0
-9989.62 -4845.72 31400.3 255 0 0
-9578.41 -5388.18 37021.2 255 0 0
-10546.2 -6183.65 33755.6 255 0 0
-2795.48 3569.41 15785.1 255 0 0
16692.7 -7897.68 53124.4 255 0 0
1807.72 13166.9 86587.1 255 0 0
-4499.26 1238.08 9052.58 255 0 0
-8465.09 -4945.18 16086.7 255 0 0
-9515.93 -9445.34 42166.2 255 0 0
-8291.62 -5690.91 16072.4 255 0 0
10451.8 -17941 39579.1 255 0 0
-9234.99 -8949.42 36840.5 255 0 0
5730.33 3610.77 12432.6 255 0 0
-3805.95 2030.59 7733.69 255 0 0
-3823.62 2051.42 7637.4 255 0 0
-5699.87 -2090.57 12726.9 255 0 0
-8597.7 -6902.9 18798.2 255 0 0
-8374.7 -2517.68 21530.4 255 0 0
7728.34 -1668.79 27554.1 255 0 0
10813.4 -16555 38221.5 255 0 0
4275.36 2865.48 10661.7 255 0 0
-8807.48 -11594.6 29146.1 255 0 0
-7706.62 -3005.8 20754.2 255 0 0
-9755.01 6843.08 52618.2 255 0 0
-14468 6924.87 83793.2 255 0 0
-7044.9 -49.2454 18945.5 255 0 0
-9562.93 -5580.4 32328.8 255 0 0
7322.43 5143.77 34535.9 255 0 0
-2904.51 1495.18 7415.49 255 0 0
9974.35 -4242.7 17015.2 255 0 0
5100.62 2654.65 8883.51 255 0 0
31543.7 -18987 402394 255 0 0
-8740.89 -4232.13 23896.2 255 0 0
-8638.02 1937.98 15144.3 255 0 0
-3154.16 2514.42 10602.1 255 0 0
20917.4 -32132.6 73738.8 255 0 0
-5805.74 4791.19 33836.3 255 0 0
-70588.4 22118.5 949454 255 0 0
12945.3 -6707.19 29665.6 255 0 0
8182.81 3280.65 18432.8 255 0 0
3308.78 1333.08 6179.55 255 0 0
5656.99 3162.47 13168.3 255 0 0
-8303.8 -2987.19 27760.1 255 0 0
-3587.76 3292.85 13067.7 255 0 0
-10831.4 10203 -119605 255 0 0
-11306.1 1089.74 32862.1 255 0 0
-11312.9 -77793.8 -1.13459e+06 255 0 0
-11429.8 -4821.8 52061.6 255 0 0
-11536.2 2428.05 59693.6 255 0 0
11889.2 -6137.66 28799.1 255 0 0
-10234 -11017.7 95951.4 255 0 0
-8465.62 -4760.25 29321.1 255 0 0
7352.6 10041.9 87025.8 255 0 0
10535.2 -15508 71134.5 255 0 0
-3925.9 9571 -42756.2 255 0 0
-15703.2 3425.94 168283 255 0 0
-3228.92 2371.58 9421.7 255 0 0
11321.6 -3215.89 30728.3 255 0 0
13042 -6980.55 35748.2 255 0 0
8487.48 -2364.81 23530.1 255 0 0
-8520.67 1169.07 14973.5 255 0 0
-8690.84 1935.86 20688.3 255 0 0
-7830.55 -5122.98 21591.2 255 0 0
